ncols        137
nrows        32
xllcorner    -5423
yllcorner    220847
cellsize     10
NODATA_value  -9999
1336.0609999999999218 1333.2560000000000855 1332.2270000000000891 1331.9939999999999145 1331.2919999999999163 1329.4220000000000255 1326.7100000000000364 1324.13799999999992 1321.5199999999999818 1317.6389999999998963 1314.5070000000000618 1312.1220000000000709 1310.7190000000000509 1309.9249999999999545 1309.2699999999999818 1308.56899999999996 1307.9610000000000127 1307.4000000000000909 1306.9790000000000418 1306.5109999999999673 1304.1269999999999527 1302.6300000000001091 1302.6300000000001091 1302.58400000000006 1302.6769999999999072 1302.4900000000000091 1302.6769999999999072 1302.8179999999999836 1302.8640000000000327 1302.6769999999999072 1301.5550000000000637 1295.9909999999999854 1294.821999999999889 1294.3550000000000182 1293.65300000000002 1292.9519999999999982 1291.5960000000000036 1289.4919999999999618 1289.2580000000000382 1289.1179999999999382 1288.93100000000004 1288.696999999999889 1288.4169999999999163 1288.6500000000000909 1289.2580000000000382 1288.9780000000000655 1288.7439999999999145 1288.2760000000000673 1287.7619999999999436 1287.2480000000000473 1287.0139999999998963 1286.6400000000001 1286.1720000000000255 1285.7509999999999764 1283.0860000000000127 1282.80600000000004 1283.4600000000000364 1285.0499999999999545 1285.09699999999998 1285.1440000000000055 1285.23700000000008 1286.3130000000001019 1289.3520000000000891 1292.3440000000000509 1294.9619999999999891 1295.3360000000000127 1299.63799999999992 1300.5260000000000673 1302.6769999999999072 1306.7449999999998909 1310.2519999999999527 1311.6549999999999727 1313.3379999999999654 1315.2080000000000837 1316.23700000000008 1317.4990000000000236 1319.1349999999999909 1320.3979999999999109 1322.5950000000000273 1326.1489999999998872 1330.5909999999998945 1336.2950000000000728 1343.02800000000002 1349.01299999999992 1354.3430000000000746 1359.2529999999999291 1365.2380000000000564 1369.6790000000000873 1373.9809999999999945 1378.7970000000000255 1383.3320000000001073 1386.5119999999999436 1387.6340000000000146 1392.7770000000000437 1396.8450000000000273 1401.1459999999999582 1404.4190000000000964 1408.48700000000008 1417.5579999999999927 1424.1510000000000673 1428.8260000000000218 1434.5309999999999491 1438.7850000000000819 1442.7599999999999909 1445.1910000000000309 1448.2300000000000182 1452.6720000000000255 1456.45900000000006 1459.3119999999998981 1460.7609999999999673 1460.5270000000000437 1462.2570000000000618 1465.7170000000000982 1469.6920000000000073 1474.1330000000000382 1479.2300000000000182 1482.5499999999999545 1485.8230000000000928 1488.34699999999998 1483.7190000000000509 1478.2480000000000473 1480.7729999999999109 1487.8330000000000837 1494.4259999999999309 1499.70900000000006 1503.40300000000002 1504.9459999999999127 1507.6579999999999018 1503.4500000000000455 1501.2989999999999782 1503.3559999999999945 1504.4780000000000655 1499.0080000000000382 1494.2850000000000819 1496.0150000000001 1498.5399999999999636 1500.1300000000001091
1333.20900000000006 1331.8070000000000164 1331.0119999999999436 1330.0299999999999727 1329.0009999999999764 1327.2239999999999327 1325.4480000000000928 1323.5769999999999982 1321.1929999999999836 1317.4059999999999491 1313.29099999999994 1310.9059999999999491 1310.2519999999999527 1309.6910000000000309 1308.8959999999999582 1308.1479999999999109 1307.4929999999999382 1306.8849999999999909 1306.8389999999999418 1304.2200000000000273 1302.58400000000006 1302.7239999999999327 1302.58400000000006 1302.8640000000000327 1302.5370000000000346 1302.6300000000001091 1302.7709999999999582 1302.8640000000000327 1302.8179999999999836 1302.6769999999999072 1298.7029999999999745 1296.5050000000001091 1295.6639999999999873 1294.4010000000000673 1293.65300000000002 1293.4190000000000964 1291.6890000000000782 1289.4919999999999618 1289.2110000000000127 1289.2580000000000382 1289.0709999999999127 1288.696999999999889 1288.6500000000000909 1288.7439999999999145 1289.4919999999999618 1289.7260000000001128 1289.4449999999999363 1289.0709999999999127 1287.6679999999998927 1287.2480000000000473 1286.9670000000000982 1286.5 1286.0319999999999254 1283.2729999999999109 1283.0399999999999636 1283.7409999999999854 1285.3309999999999036 1285.1900000000000546 1285.0029999999999291 1285.0499999999999545 1285.4710000000000036 1287.2010000000000218 1291.0820000000001073 1293.3730000000000473 1297.2999999999999545 1300.1520000000000437 1302.6300000000001091 1303.47199999999998 1305.3889999999998963 1307.3530000000000655 1310.5319999999999254 1312.7770000000000437 1314.3199999999999363 1316.3769999999999527 1318.3869999999999436 1319.7429999999999382 1321.8009999999999309 1323.8579999999999472 1324.3250000000000455 1327.4110000000000582 1330.9179999999998927 1337.6510000000000673 1345.9269999999999072 1351.7249999999999091 1357.1949999999999363 1362.571999999999889 1367.6220000000000709 1373.6069999999999709 1378.5630000000001019 1383.1920000000000073 1388.7560000000000855 1392.0289999999999964 1393.9929999999999382 1396.6110000000001037 1402.7360000000001037 1407.0380000000000109 1413.2100000000000364 1420.6910000000000309 1428.6389999999998963 1432.9410000000000309 1436.6349999999999909 1440.6559999999999491 1444.3959999999999582 1447.8089999999999691 1450.8489999999999327 1453.1869999999998981 1456.8800000000001091 1461.321999999999889 1465.25 1467.1669999999999163 1467.2599999999999909 1467.54099999999994 1469.3170000000000073 1472.8710000000000946 1476.3309999999999036 1483.0170000000000528 1488.1140000000000327 1491.15300000000002 1493.4900000000000091 1491.1990000000000691 1484.8409999999998945 1483.2039999999999509 1489.5630000000001019 1497.2309999999999945 1503.9169999999999163 1508.3589999999999236 1510.93100000000004 1512.2870000000000346 1508.5930000000000746 1508.5930000000000746 1508.9200000000000728 1511.1179999999999382 1503.9169999999999163 1499.9900000000000091 1501.9069999999999254 1505.3669999999999618 1506.0209999999999582
1329.8900000000001 1328.8140000000000782 1328.34699999999998 1327.4110000000000582 1326.5229999999999109 1325.1199999999998909 1323.7180000000000746 1321.8940000000000055 1318.8079999999999927 1313.8520000000000891 1310.7190000000000509 1309.9249999999999545 1309.4100000000000819 1309.0360000000000582 1308.428000000000111 1307.6800000000000637 1307.16599999999994 1306.6980000000000928 1304.7349999999999 1302.58400000000006 1302.3499999999999091 1302.58400000000006 1302.5370000000000346 1302.4900000000000091 1302.4900000000000091 1302.7239999999999327 1303.0050000000001091 1302.9580000000000837 1302.8640000000000327 1302.6300000000001091 1302.8179999999999836 1297.4410000000000309 1297.3940000000000055 1294.7750000000000909 1294.0270000000000437 1293.8399999999999181 1292.9990000000000236 1289.81899999999996 1289.8659999999999854 1289.7260000000001128 1289.2110000000000127 1289.1179999999999382 1288.7439999999999145 1289.2110000000000127 1289.2580000000000382 1289.5850000000000364 1289.6790000000000873 1288.1829999999999927 1287.6220000000000709 1287.2480000000000473 1286.8269999999999982 1286.2660000000000764 1283.5540000000000873 1283.3199999999999363 1283.69399999999996 1285.7980000000000018 1285.5640000000000782 1285.3769999999999527 1285.23700000000008 1285.4239999999999782 1285.0499999999999545 1289.0239999999998872 1294.4480000000000928 1296.45900000000006 1301.04099999999994 1302.3969999999999345 1304.4539999999999509 1305.0150000000001 1309.1759999999999309 1310.11200000000008 1311.5139999999998963 1313.571999999999889 1315.4420000000000073 1317.125 1318.52800000000002 1319.6030000000000655 1324.2319999999999709 1326.0090000000000146 1326.4760000000001128 1327.4110000000000582 1330.0769999999999982 1337.5109999999999673 1345.9269999999999072 1352.8940000000000055 1359.5329999999999018 1365.8450000000000273 1371.9700000000000273 1376.45900000000006 1382.0229999999999109 1387.2599999999999909 1392.1220000000000709 1396.9849999999999 1400.0239999999998872 1403.25 1407.8330000000000837 1417.0899999999999181 1423.8230000000000928 1429.9949999999998909 1433.2680000000000291 1437.6630000000000109 1441.2170000000000982 1445.8920000000000528 1450.0070000000000618 1453.5139999999998963 1457.3949999999999818 1460.1059999999999945 1462.678000000000111 1465.25 1470.0190000000000055 1474.2270000000000891 1474.8350000000000364 1474.6479999999999109 1475.2560000000000855 1476.7980000000000018 1480.8659999999999854 1486.6169999999999618 1493.2570000000000618 1496.3889999999998963 1499.0080000000000382 1498.2599999999999909 1492.4149999999999636 1488.6279999999999291 1490.8720000000000709 1499.3820000000000618 1506.4890000000000327 1512.7539999999999054 1516.0740000000000691 1516.6820000000000164 1513.22199999999998 1514.8579999999999472 1514.8119999999998981 1515.8869999999999436 1509.1539999999999964 1506.9559999999999036 1508.1720000000000255 1511.4919999999999618 1512.6610000000000582
1328.0190000000000055 1326.8499999999999091 1326.1020000000000891 1325.0740000000000691 1324.4190000000000964 1323.2029999999999745 1321.6140000000000327 1318.3409999999998945 1313.9919999999999618 1310.0650000000000546 1309.2699999999999818 1308.8019999999999072 1308.428000000000111 1308.0540000000000873 1307.8209999999999127 1307.2129999999999654 1306.6520000000000437 1306.0909999999998945 1303.4249999999999545 1302.3499999999999091 1302.3969999999999345 1302.3969999999999345 1302.7239999999999327 1302.4900000000000091 1302.4900000000000091 1302.7709999999999582 1302.9580000000000837 1302.9580000000000837 1302.8179999999999836 1302.8640000000000327 1302.3969999999999345 1300.1520000000000437 1298.2349999999999 1294.821999999999889 1294.4010000000000673 1294.3079999999999927 1292.9049999999999727 1290.5209999999999582 1289.7260000000001128 1289.7719999999999345 1289.3520000000000891 1289.0239999999998872 1289.0709999999999127 1288.9780000000000655 1289.0239999999998872 1289.6320000000000618 1289.4919999999999618 1288.0889999999999418 1287.5750000000000455 1287.1069999999999709 1286.2660000000000764 1283.83400000000006 1283.6469999999999345 1283.7409999999999854 1285.8450000000000273 1287.8089999999999691 1289.81899999999996 1289.4449999999999363 1288.93100000000004 1288.2760000000000673 1290.4739999999999327 1294.0740000000000691 1296.45900000000006 1301.18100000000004 1305.1549999999999727 1306.1839999999999691 1307.6800000000000637 1309.7380000000000564 1309.8309999999999036 1310.11200000000008 1311.88799999999992 1314.1790000000000873 1316.4239999999999782 1318.9020000000000437 1321.0060000000000855 1323.1569999999999254 1325.9619999999999891 1327.8320000000001073 1329.0950000000000273 1330.4970000000000709 1331.4320000000000164 1337.4639999999999418 1343.8230000000000928 1350.3689999999999145 1357.1949999999999363 1364.0219999999999345 1370.9420000000000073 1377.34699999999998 1382.4909999999999854 1386.0909999999998945 1391.0470000000000255 1396.6579999999999018 1404.0450000000000728 1409.4690000000000509 1417.7919999999999163 1426.1150000000000091 1431.4449999999999363 1435.8399999999999181 1439.6269999999999527 1442.946999999999889 1447.6220000000000709 1451.3630000000000564 1456.6929999999999836 1460.9480000000000928 1463.4259999999999309 1466.8859999999999673 1469.5979999999999563 1471.2339999999999236 1475.0679999999999836 1479.5099999999999909 1481.7080000000000837 1482.5029999999999291 1481.4269999999999072 1483.2039999999999509 1486.8510000000001128 1491.4800000000000182 1497.6520000000000437 1502.2339999999999236 1503.9639999999999418 1505.1800000000000637 1500.8309999999999036 1493.5370000000000346 1493.1159999999999854 1501.8599999999999 1509.3409999999998945 1515.7470000000000709 1521.5440000000000964 1522.1050000000000182 1518.8330000000000837 1521.1700000000000728 1521.9179999999998927 1520.6089999999999236 1514.7180000000000746 1513.1279999999999291 1514.7650000000001 1517.4770000000000891 1519.48700000000008
1327.4580000000000837 1326.1489999999998872 1324.7929999999998927 1323.5769999999999982 1322.4079999999999018 1320.3979999999999109 1316.9380000000001019 1313.1980000000000928 1309.4100000000000819 1308.1479999999999109 1307.8209999999999127 1307.8209999999999127 1307.5399999999999636 1307.4000000000000909 1307.16599999999994 1306.9320000000000164 1306.4179999999998927 1305.0150000000001 1302.5370000000000346 1302.2100000000000364 1302.3969999999999345 1302.4900000000000091 1302.6300000000001091 1302.4900000000000091 1302.6300000000001091 1302.7239999999999327 1302.7239999999999327 1302.6769999999999072 1302.7709999999999582 1303.1449999999999818 1301.8820000000000618 1300.3859999999999673 1299.2170000000000982 1295.1030000000000655 1294.91599999999994 1294.7750000000000909 1292.2970000000000255 1290.1929999999999836 1289.7260000000001128 1289.6320000000000618 1289.3979999999999109 1289.3520000000000891 1289.3979999999999109 1289.0709999999999127 1289.1179999999999382 1288.8840000000000146 1288.4629999999999654 1287.9020000000000437 1287.4349999999999454 1286.5460000000000491 1283.9749999999999091 1283.83400000000006 1284.3489999999999327 1285.6579999999999018 1290.4269999999999072 1294.4010000000000673 1297.34699999999998 1297.0199999999999818 1296.6920000000000073 1295.5229999999999109 1296.45900000000006 1298.0950000000000273 1300.9010000000000673 1306.4179999999998927 1308.3820000000000618 1309.7380000000000564 1309.8309999999999036 1309.9710000000000036 1310.11200000000008 1310.6259999999999764 1312.3559999999999945 1314.7400000000000091 1317.4059999999999491 1320.3040000000000873 1322.8289999999999509 1325.2609999999999673 1327.8320000000001073 1329.4690000000000509 1332.2739999999998872 1333.6300000000001091 1334.8460000000000036 1336.8099999999999454 1341.0180000000000291 1348.3579999999999472 1354.8109999999999218 1361.6839999999999691 1367.6220000000000709 1373.1859999999999218 1378.7970000000000255 1386.0909999999998945 1393.7590000000000146 1401.053000000000111 1408.5809999999999036 1418.7270000000000891 1427.3769999999999527 1434.25 1438.08400000000006 1441.2170000000000982 1445.47199999999998 1449.6800000000000637 1454.4490000000000691 1459.2180000000000746 1462.2570000000000618 1466.4649999999999181 1470.6269999999999527 1473.571999999999889 1474.928000000000111 1478.4819999999999709 1480.9130000000000109 1484.7470000000000709 1488.0670000000000073 1489.5160000000000764 1489.4230000000000018 1490.0769999999999982 1492.7889999999999873 1497.2309999999999945 1502.2809999999999491 1506.7229999999999563 1509.52800000000002 1510.79099999999994 1504.5250000000000909 1504.0109999999999673 1501.0180000000000291 1505.2260000000001128 1513.4090000000001055 1519.2999999999999545 1525.2380000000000564 1527.1089999999999236 1524.58400000000006 1527.2490000000000236 1527.9500000000000455 1526.2670000000000528 1519.4400000000000546 1518.9729999999999563 1520.0950000000000273 1523.2280000000000655 1526.7809999999999491
1327.2239999999999327 1325.4480000000000928 1323.8579999999999472 1322.0809999999999036 1319.9300000000000637 1317.2190000000000509 1313.7119999999999891 1310.6259999999999764 1308.56899999999996 1307.071999999999889 1306.5109999999999673 1306.9320000000000164 1306.9790000000000418 1307.0260000000000673 1307.0260000000000673 1306.2309999999999945 1306.6050000000000182 1303.7989999999999782 1302.3499999999999091 1302.303000000000111 1302.58400000000006 1303.47199999999998 1303.0509999999999309 1302.8640000000000327 1302.8640000000000327 1302.7239999999999327 1302.7709999999999582 1302.303000000000111 1303.0509999999999309 1303.1449999999999818 1301.4619999999999891 1299.4510000000000218 1299.1710000000000491 1295.5229999999999109 1295.5699999999999363 1293.51299999999992 1291.4090000000001055 1289.95900000000006 1289.7719999999999345 1289.6320000000000618 1290.0999999999999091 1289.81899999999996 1289.6320000000000618 1289.1649999999999636 1289.2110000000000127 1288.8369999999999891 1288.2290000000000418 1287.7619999999999436 1286.2660000000000764 1284.2080000000000837 1284.0679999999999836 1284.4420000000000073 1285.7509999999999764 1291.5489999999999782 1296.5519999999999072 1300.4329999999999927 1300.4329999999999927 1300.4800000000000182 1300.4329999999999927 1300.5260000000000673 1300.5260000000000673 1300.5730000000000928 1303.3789999999999054 1309.1300000000001091 1312.1690000000000964 1311.4680000000000746 1309.9710000000000036 1310.1579999999999018 1310.5319999999999254 1311.7010000000000218 1312.9639999999999418 1314.83400000000006 1317.5930000000000746 1320.7249999999999091 1323.4369999999998981 1326.4300000000000637 1329.2819999999999254 1331.7599999999999909 1333.5830000000000837 1335.9210000000000491 1337.5579999999999927 1339.4749999999999091 1341.3920000000000528 1346.9559999999999036 1353.5019999999999527 1359.2529999999999291 1365.0039999999999054 1371.6430000000000291 1380.15300000000002 1391.6079999999999472 1399.4169999999999163 1406.6169999999999618 1414.9400000000000546 1427.4239999999999782 1433.1279999999999291 1437.8040000000000873 1442.5730000000000928 1446.9210000000000491 1451.3630000000000564 1457.2539999999999054 1461.7429999999999382 1465.25 1470.3930000000000291 1474.928000000000111 1477.4529999999999745 1479.93100000000004 1482.73700000000008 1485.4480000000000928 1487.8800000000001091 1491.15300000000002 1495.6410000000000764 1496.6230000000000473 1496.9510000000000218 1497.7919999999999163 1500.4110000000000582 1503.8240000000000691 1507.3769999999999527 1511.8659999999999854 1514.6710000000000491 1516.5879999999999654 1512.2400000000000091 1512.3800000000001091 1510.3230000000000928 1507.7509999999999764 1517.3830000000000382 1523.04099999999994 1528.7449999999998909 1529.6800000000000637 1529.4000000000000909 1532.1579999999999018 1534.1690000000000964 1529.7739999999998872 1524.1630000000000109 1524.7709999999999582 1525.61200000000008 1527.9970000000000709 1533.3740000000000236
1326.8969999999999345 1324.9329999999999927 1323.2970000000000255 1320.4449999999999363 1317.4519999999999982 1314.9269999999999072 1312.2159999999998945 1310.1579999999999018 1308.70900000000006 1307.2129999999999654 1305.6700000000000728 1306.6980000000000928 1307.4000000000000909 1307.2590000000000146 1306.9320000000000164 1306.3710000000000946 1305.4829999999999472 1302.58400000000006 1302.303000000000111 1302.3499999999999091 1303.0050000000001091 1304.1269999999999527 1303.8460000000000036 1303.0050000000001091 1302.6769999999999072 1302.3969999999999345 1302.2100000000000364 1300.5730000000000928 1302.9110000000000582 1303.4249999999999545 1302.06899999999996 1299.1240000000000236 1295.7570000000000618 1295.8040000000000873 1295.3830000000000382 1293.0920000000000982 1290.7080000000000837 1289.95900000000006 1290.2400000000000091 1290.4269999999999072 1290.3800000000001091 1289.95900000000006 1289.8659999999999854 1289.3979999999999109 1289.1179999999999382 1288.5570000000000164 1288.0889999999999418 1285.7049999999999272 1284.5830000000000837 1284.3489999999999327 1285.0499999999999545 1286.5 1290.8479999999999563 1297.3940000000000055 1300.5260000000000673 1300.6669999999999163 1300.7139999999999418 1300.6669999999999163 1300.8540000000000418 1301.0879999999999654 1300.6669999999999163 1300.5730000000000928 1300.3859999999999673 1300.3389999999999418 1309.5039999999999054 1314.0389999999999873 1310.3920000000000528 1310.2049999999999272 1311.2339999999999236 1312.7300000000000182 1313.8520000000000891 1315.4890000000000327 1317.5930000000000746 1320.8650000000000091 1324.13799999999992 1326.7100000000000364 1329.8430000000000746 1332.5080000000000382 1335.6410000000000764 1335.8279999999999745 1339.6150000000000091 1341.5789999999999509 1343.5419999999999163 1347.1890000000000782 1353.5480000000000018 1361.1700000000000728 1367.7619999999999436 1375.9449999999999363 1388.4749999999999091 1398.0609999999999218 1406.8969999999999345 1414.7529999999999291 1419.2409999999999854 1428.4519999999999982 1437.8040000000000873 1442.66599999999994 1447.9960000000000946 1455.8520000000000891 1460.01299999999992 1464.7349999999999 1469.0370000000000346 1473.3849999999999909 1477.1730000000000018 1480.5389999999999873 1483.0170000000000528 1486.4770000000000891 1490.0309999999999491 1492.6489999999998872 1496.5299999999999727 1500.2699999999999818 1503.26299999999992 1504.7119999999999891 1505.3199999999999363 1507.0029999999999291 1508.2190000000000509 1510.7439999999999145 1514.2970000000000255 1517.94399999999996 1520.8900000000001 1523.04099999999994 1520.8900000000001 1520.7029999999999745 1518.6459999999999582 1515.3260000000000218 1520.375 1526.5009999999999764 1532.2519999999999527 1533.2339999999999236 1534.3089999999999691 1537.4890000000000327 1540.1069999999999709 1536.4130000000000109 1530.3350000000000364 1528.3240000000000691 1531.2229999999999563 1534.7300000000000182 1539.3119999999998981
1326.3360000000000127 1324.4659999999998945 1322.1279999999999291 1319.696999999999889 1316.8910000000000764 1313.0099999999999909 1310.9059999999999491 1309.5509999999999309 1308.3350000000000364 1307.071999999999889 1306.1839999999999691 1306.2309999999999945 1307.2590000000000146 1306.8389999999999418 1305.8569999999999709 1306.5579999999999927 1304.3140000000000782 1302.3969999999999345 1302.2560000000000855 1302.5370000000000346 1304.4539999999999509 1304.3140000000000782 1303.0979999999999563 1303.0979999999999563 1298.7029999999999745 1298.7029999999999745 1300.3859999999999673 1298.75 1302.9110000000000582 1303.47199999999998 1302.4429999999999836 1296.0850000000000364 1296.2249999999999091 1295.7570000000000618 1295.0090000000000146 1293.9800000000000182 1290.2870000000000346 1290.2400000000000091 1290.6140000000000327 1290.3800000000001091 1289.95900000000006 1290.3330000000000837 1289.6320000000000618 1289.6320000000000618 1288.9780000000000655 1288.6500000000000909 1285.0499999999999545 1284.6759999999999309 1284.6759999999999309 1285.9849999999999 1289.6320000000000618 1292.8579999999999472 1298.1420000000000528 1300.6669999999999163 1300.8070000000000164 1300.7599999999999909 1300.9010000000000673 1301.04099999999994 1301.2750000000000909 1301.04099999999994 1300.5260000000000673 1300.4329999999999927 1300.6199999999998909 1300.5730000000000928 1301.2750000000000909 1310.8599999999999 1313.3849999999999909 1311.1400000000001 1311.9819999999999709 1313.2439999999999145 1313.9919999999999618 1315.6289999999999054 1318.1539999999999964 1320.4909999999999854 1323.1569999999999254 1325.9149999999999636 1328.6269999999999527 1331.6199999999998909 1334.8460000000000036 1338.30600000000004 1339.4749999999999091 1342.9809999999999945 1345.45900000000006 1348.4519999999999982 1355.8389999999999418 1362.571999999999889 1370.6610000000000582 1383.2390000000000327 1394.4139999999999873 1401.9410000000000309 1409.5160000000000764 1412.5550000000000637 1421.1579999999999018 1431.7719999999999345 1443.0399999999999636 1450.9420000000000073 1457.1140000000000327 1462.0699999999999363 1466.0909999999998945 1470.6730000000000018 1475.0219999999999345 1479.3230000000000928 1483.0640000000000782 1486.4300000000000637 1489.7029999999999745 1492.8360000000000127 1496.7639999999998963 1500.8779999999999291 1507.0029999999999291 1510.5099999999999909 1513.36200000000008 1516.1210000000000946 1518.4580000000000837 1517.8969999999999345 1519.2070000000001073 1519.48700000000008 1521.1700000000000728 1525.0979999999999563 1527.6700000000000728 1529.4929999999999382 1529.0260000000000673 1528.2770000000000437 1527.1089999999999236 1526.0799999999999272 1526.7339999999999236 1531.2699999999999818 1537.3949999999999818 1539.9200000000000728 1540.0599999999999454 1542.3040000000000873 1546.1849999999999454 1540.9020000000000437 1534.7300000000000182 1533.9349999999999454 1536.2729999999999109 1542.0709999999999127 1546.8859999999999673
1325.68100000000004 1324.0450000000000728 1322.1279999999999291 1319.7429999999999382 1315.72199999999998 1311.7010000000000218 1310.0650000000000546 1309.0830000000000837 1308.1479999999999109 1307.2590000000000146 1306.5109999999999673 1306.2309999999999945 1306.3240000000000691 1306.0440000000000964 1306.4179999999998927 1306.5109999999999673 1306.4649999999999181 1302.3969999999999345 1302.3499999999999091 1302.4429999999999836 1302.6769999999999072 1302.9110000000000582 1302.9110000000000582 1303.2850000000000819 1299.5450000000000728 1298.8900000000001 1298.8430000000000746 1298.5630000000001019 1298.3759999999999764 1298.0950000000000273 1299.1710000000000491 1296.5519999999999072 1296.5519999999999072 1295.8979999999999109 1294.8689999999999145 1294.0270000000000437 1292.8119999999998981 1290.7080000000000837 1290.6140000000000327 1290.4739999999999327 1290.4269999999999072 1289.7719999999999345 1290.053000000000111 1289.3520000000000891 1288.8840000000000146 1284.8630000000000564 1284.8160000000000309 1285.8450000000000273 1288.4629999999999654 1292.1099999999999 1297.9079999999999018 1300.6199999999998909 1300.8070000000000164 1300.946999999999889 1300.8540000000000418 1300.946999999999889 1301.8360000000000127 1301.2750000000000909 1301.2280000000000655 1300.4329999999999927 1300.3859999999999673 1301.1340000000000146 1300.4329999999999927 1300.6199999999998909 1300.3859999999999673 1309.59699999999998 1313.0570000000000164 1312.1220000000000709 1312.5899999999999181 1313.9459999999999127 1315.1610000000000582 1316.6569999999999254 1318.3869999999999436 1320.2580000000000382 1322.9700000000000273 1325.9619999999999891 1329.7029999999999745 1332.8350000000000364 1335.6869999999998981 1338.4929999999999382 1342.3269999999999982 1344.3369999999999891 1345.7400000000000091 1349.4800000000000182 1353.5480000000000018 1359.5799999999999272 1367.0139999999998963 1376.6459999999999582 1385.4359999999999218 1396.23700000000008 1403.4380000000001019 1409.7029999999999745 1419.2409999999999854 1428.6859999999999218 1440.4220000000000255 1448.9320000000000164 1456.0389999999999873 1465.9510000000000218 1471.9829999999999472 1477.7339999999999236 1480.6790000000000873 1484.1389999999998963 1488.3009999999999309 1492.6489999999998872 1495.7349999999999 1505.7409999999999854 1507.4710000000000036 1511.2110000000000127 1517.8040000000000873 1521.0299999999999727 1523.9290000000000873 1528.2309999999999945 1528.6510000000000673 1528.2770000000000437 1527.2490000000000236 1527.8099999999999454 1529.4000000000000909 1531.3170000000000073 1534.5429999999998927 1536.5999999999999091 1537.3009999999999309 1535.3379999999999654 1534.1220000000000709 1533.5609999999999218 1530.6150000000000091 1537.4890000000000327 1542.1169999999999618 1546.0450000000000728 1546.9800000000000182 1547.4480000000000928 1550.4400000000000546 1545.0160000000000764 1540.6679999999998927 1540.2470000000000709 1541.5099999999999909 1545.6240000000000236 1550.48700000000008
1325.2139999999999418 1323.7639999999998963 1322.2680000000000291 1319.3230000000000928 1314.0860000000000127 1311 1309.6440000000000055 1308.6620000000000346 1308.0080000000000382 1307.2129999999999654 1306.6050000000000182 1306.2309999999999945 1305.9970000000000709 1305.90300000000002 1306.1839999999999691 1306.4649999999999181 1305.4829999999999472 1302.6300000000001091 1302.2560000000000855 1302.3969999999999345 1302.3499999999999091 1303.4249999999999545 1302.6300000000001091 1301.8360000000000127 1298.8900000000001 1298.8900000000001 1298.8430000000000746 1298.3289999999999509 1297.8610000000001037 1297.8610000000001037 1296.7860000000000582 1296.9259999999999309 1296.5050000000001091 1295.9909999999999854 1295.3360000000000127 1295.1489999999998872 1292.1569999999999254 1291.5489999999999782 1290.5670000000000073 1290.1459999999999582 1290.3800000000001091 1290.2870000000000346 1289.7719999999999345 1289.2110000000000127 1284.9570000000001073 1284.9100000000000819 1287.7619999999999436 1289.4449999999999363 1293.7470000000000709 1298.0950000000000273 1300.4800000000000182 1300.9939999999999145 1300.946999999999889 1300.9939999999999145 1301.04099999999994 1301.04099999999994 1301.2280000000000655 1300.5730000000000928 1300.4329999999999927 1300.7139999999999418 1300.4329999999999927 1300.3859999999999673 1300.6199999999998909 1301.4619999999999891 1303.61200000000008 1307.6800000000000637 1310.9059999999999491 1316.0960000000000036 1313.9919999999999618 1315.3019999999999072 1316.5170000000000528 1318.4809999999999945 1319.7429999999999382 1321.84699999999998 1323.5769999999999982 1326.7100000000000364 1330.7309999999999945 1334.47199999999998 1337.9790000000000418 1340.3160000000000309 1343.1220000000000709 1347.4700000000000273 1348.2650000000001 1350.4619999999999891 1352.1920000000000073 1356.446999999999889 1361.9179999999998927 1368.79099999999994 1381.0879999999999654 1389.2699999999999818 1397.2190000000000509 1403.25 1415.5940000000000509 1425.3659999999999854 1434.0630000000001019 1448.0429999999998927 1453.9809999999999945 1465.7639999999998963 1475.5360000000000582 1482.0820000000001073 1485.5889999999999418 1489.2360000000001037 1494.7999999999999545 1503.6369999999999436 1509.9490000000000691 1513.9230000000000018 1518.8789999999999054 1525.7989999999999782 1527.5760000000000218 1531.4570000000001073 1534.1220000000000709 1535.1040000000000418 1536.3659999999999854 1535.5250000000000909 1535.0570000000000164 1535.196999999999889 1536.7870000000000346 1538.7039999999999509 1541.0889999999999418 1543.5199999999999818 1544.0809999999999036 1542.3979999999999109 1541.5099999999999909 1540.6210000000000946 1538.8910000000000764 1540.8550000000000182 1547.4010000000000673 1552.1230000000000473 1553.8530000000000655 1554.4139999999999873 1555.20900000000006 1549.8320000000001073 1546.2319999999999709 1545.8579999999999472 1547.1199999999998909 1551.1410000000000764 1555.5830000000000837
1323.7180000000000746 1322.8759999999999764 1321.1459999999999582 1316.9380000000001019 1312.6359999999999673 1310.6259999999999764 1309.6440000000000055 1308.70900000000006 1308.0080000000000382 1307.16599999999994 1306.5579999999999927 1306.0440000000000964 1305.8569999999999709 1305.8099999999999454 1303.4249999999999545 1306.2309999999999945 1303.2850000000000819 1302.2560000000000855 1302.303000000000111 1302.3499999999999091 1302.9580000000000837 1302.303000000000111 1302.9580000000000837 1300.0119999999999436 1299.0299999999999727 1298.9369999999998981 1298.75 1298.0019999999999527 1297.7680000000000291 1297.2070000000001073 1297.2070000000001073 1296.8789999999999054 1296.45900000000006 1295.7110000000000127 1294.6820000000000164 1292.25 1291.6890000000000782 1291.1749999999999545 1290.9880000000000564 1290.5670000000000073 1290.7539999999999054 1290.2400000000000091 1289.7260000000001128 1285.2840000000001055 1285.0029999999999291 1288.3699999999998909 1294.6820000000000164 1294.5879999999999654 1298.0480000000000018 1300.8070000000000164 1300.9939999999999145 1300.9010000000000673 1301.0879999999999654 1301.8820000000000618 1301.0879999999999654 1301.2280000000000655 1300.4329999999999927 1300.4800000000000182 1301.18100000000004 1300.4800000000000182 1301.0879999999999654 1300.4329999999999927 1302.6300000000001091 1305.1089999999999236 1308.3820000000000618 1309.7380000000000564 1311.2809999999999491 1314.1330000000000382 1318.5740000000000691 1317.7799999999999727 1318.6210000000000946 1320.5850000000000364 1323.0160000000000764 1325.4939999999999145 1328.1600000000000819 1331.6199999999998909 1335.4069999999999254 1338.6800000000000637 1342.1869999999998981 1344.9449999999999363 1347.8440000000000509 1349.6210000000000946 1351.5380000000000109 1354.5769999999999982 1356.1669999999999163 1356.1199999999998909 1361.2159999999998945 1365.9390000000000782 1372.5779999999999745 1382.44399999999996 1390.2049999999999272 1399.696999999999889 1411.946999999999889 1420.3630000000000564 1429.2000000000000455 1442.4320000000000164 1452.2980000000000018 1460.0599999999999454 1471.7019999999999982 1484.2799999999999727 1490.8720000000000709 1495.9690000000000509 1506.7229999999999563 1511.8659999999999854 1517.5699999999999363 1524.9110000000000582 1530.3350000000000364 1533.7950000000000728 1535.8520000000000891 1538.7980000000000018 1540.6210000000000946 1542.678000000000111 1542.7249999999999091 1541.3689999999999145 1541.2290000000000418 1542.95900000000006 1544.9230000000000018 1546.13799999999992 1547.7750000000000909 1549.6920000000000073 1551.2819999999999254 1551.8889999999998963 1548.4760000000001128 1548.6630000000000109 1547.1669999999999163 1546.0450000000000728 1552.4970000000000709 1554.0869999999999891 1556.5650000000000546 1558.90300000000002 1557.4069999999999254 1555.9110000000000582 1553.946999999999889 1552.9649999999999181 1555.1159999999999854 1555.6769999999999072 1559.9320000000000164
1319.9300000000000637 1318.4339999999999691 1316.4700000000000273 1313.571999999999889 1311.4210000000000491 1310.6730000000000018 1309.9710000000000036 1309.0830000000000837 1308.2880000000000109 1307.5399999999999636 1306.9320000000000164 1305.9500000000000455 1305.76299999999992 1305.3889999999998963 1304.2200000000000273 1303.8460000000000036 1302.58400000000006 1302.303000000000111 1302.303000000000111 1302.4429999999999836 1303.2380000000000564 1302.4429999999999836 1302.3969999999999345 1298.9369999999998981 1298.9839999999999236 1298.8900000000001 1298.3759999999999764 1297.8150000000000546 1297.6739999999999782 1297.34699999999998 1296.8330000000000837 1296.3650000000000091 1295.6169999999999618 1295.94399999999996 1294.3079999999999927 1291.36200000000008 1290.6610000000000582 1291.22199999999998 1290.9410000000000309 1291.0350000000000819 1290.6610000000000582 1288.8369999999999891 1285.6110000000001037 1285.3309999999999036 1288.9780000000000655 1290.8949999999999818 1293.7470000000000709 1297.1130000000000564 1300.7599999999999909 1301.2750000000000909 1301.6489999999998872 1301.1340000000000146 1301.18100000000004 1301.1340000000000146 1300.4329999999999927 1300.4800000000000182 1300.5260000000000673 1300.7139999999999418 1300.4800000000000182 1301.18100000000004 1300.6669999999999163 1305.5289999999999964 1305.76299999999992 1309.0830000000000837 1311.2809999999999491 1314.4130000000000109 1315.9090000000001055 1316.0029999999999291 1318.1539999999999964 1320.7249999999999091 1320.4909999999999854 1321.9410000000000309 1325.7750000000000909 1328.2059999999999036 1331.1050000000000182 1336.7159999999998945 1342 1344.9919999999999618 1348.2180000000000746 1351.95900000000006 1355.6990000000000691 1358.3179999999999836 1358.5509999999999309 1358.9249999999999545 1359.9069999999999254 1360.1880000000001019 1360.9829999999999472 1366.6869999999998981 1372.0170000000000528 1377.6279999999999291 1385.8099999999999454 1396.3309999999999036 1406.7100000000000364 1415.875 1429.7149999999999181 1436.9149999999999636 1446.6869999999998981 1453.7480000000000473 1466.3720000000000709 1476.5650000000000546 1496.1089999999999236 1506.0679999999999836 1513.36200000000008 1520.9829999999999472 1526.5009999999999764 1532.5789999999999509 1536.5070000000000618 1539.1720000000000255 1541.9770000000000891 1544.5950000000000273 1546.8399999999999181 1548.0550000000000637 1547.9619999999999891 1546.3720000000000709 1548.4290000000000873 1550.7670000000000528 1551.9829999999999472 1554.5080000000000382 1556.1910000000000309 1556.6590000000001055 1557.4529999999999745 1557.3130000000001019 1555.4900000000000091 1555.20900000000006 1554.7419999999999618 1553.5260000000000673 1554.3679999999999382 1558.1079999999999472 1560.8199999999999363 1562.5499999999999545 1564.0930000000000746 1559.5570000000000164 1557.0789999999999509 1556.4249999999999545 1560.3520000000000891 1563.2509999999999764 1566.1030000000000655
1317.8730000000000473 1315.4890000000000327 1313.43100000000004 1312.1220000000000709 1311.2809999999999491 1310.5319999999999254 1309.7840000000001055 1309.2229999999999563 1308.4749999999999091 1308.1479999999999109 1307.9139999999999873 1305.9500000000000455 1305.6230000000000473 1306.0909999999998945 1304.6410000000000764 1303.6590000000001055 1302.3969999999999345 1302.303000000000111 1302.303000000000111 1302.8179999999999836 1302.6769999999999072 1302.4900000000000091 1299.9190000000000964 1298.7960000000000491 1298.8900000000001 1298.8900000000001 1298.2819999999999254 1297.7680000000000291 1297.5809999999999036 1297.48700000000008 1296.3179999999999836 1296.3650000000000091 1296.0850000000000364 1296.0850000000000364 1293.5599999999999454 1291.8759999999999764 1291.6890000000000782 1291.36200000000008 1291.36200000000008 1291.0350000000000819 1289.1649999999999636 1285.7980000000000018 1285.6110000000001037 1289.2580000000000382 1289.6790000000000873 1291.1749999999999545 1295.1030000000000655 1297.6739999999999782 1300.0119999999999436 1301.0879999999999654 1301.8360000000000127 1301.2750000000000909 1301.3209999999999127 1300.4800000000000182 1300.5730000000000928 1301.2750000000000909 1300.4800000000000182 1300.6199999999998909 1300.4800000000000182 1305.2960000000000491 1309.5039999999999054 1312.1690000000000964 1314.4130000000000109 1317.7329999999999472 1321.7070000000001073 1321.5199999999999818 1321.6140000000000327 1321.9410000000000309 1320.7719999999999345 1321.3330000000000837 1321.8009999999999309 1324.13799999999992 1327.2709999999999582 1331.1050000000000182 1335.4539999999999509 1340.2229999999999563 1346.2080000000000837 1351.0699999999999363 1355.3250000000000455 1358.2709999999999582 1362.9000000000000909 1367.2010000000000218 1367.0609999999999218 1368.1359999999999673 1368.3230000000000928 1369.3050000000000637 1364.20900000000006 1366.5470000000000255 1370.053000000000111 1375.4300000000000637 1384.1739999999999782 1392.3559999999999945 1401.2870000000000346 1412.2750000000000909 1423.5429999999998927 1429.8550000000000182 1441.4039999999999964 1451.1289999999999054 1462.0699999999999363 1484.3730000000000473 1492.5090000000000146 1511.3979999999999109 1519.1130000000000564 1526.0329999999999018 1532.0180000000000291 1536.5999999999999091 1540.9480000000000928 1544.3150000000000546 1548.2419999999999618 1549.8320000000001073 1551.5619999999998981 1552.4039999999999964 1552.77800000000002 1551.7490000000000236 1554.1800000000000637 1557.5470000000000255 1558.0609999999999218 1560.1189999999999145 1562.5499999999999545 1564.3269999999999982 1565.9629999999999654 1566.196999999999889 1565.7290000000000418 1563.7190000000000509 1559.6040000000000418 1557.7339999999999236 1556.6590000000001055 1561.9890000000000327 1565.8230000000000928 1566.9449999999999363 1567.6459999999999582 1566.1500000000000909 1562.9710000000000036 1564.1859999999999218 1566.3369999999999891 1568.9090000000001055 1572.8360000000000127
1316.0029999999999291 1314.2260000000001128 1313.1980000000000928 1312.1690000000000964 1311.3269999999999982 1310.5789999999999509 1309.7380000000000564 1308.56899999999996 1307.1189999999999145 1307.4000000000000909 1307.0260000000000673 1305.4359999999999218 1305.2019999999999982 1305.0619999999998981 1304.6410000000000764 1305.1089999999999236 1302.7709999999999582 1302.3499999999999091 1302.2100000000000364 1302.8179999999999836 1302.1630000000000109 1301.6020000000000891 1300.0119999999999436 1298.6559999999999491 1298.7029999999999745 1298.7960000000000491 1298.75 1297.7210000000000036 1297.6279999999999291 1297.0199999999999818 1296.6920000000000073 1296.1310000000000855 1296.0850000000000364 1295.6169999999999618 1292.4380000000001019 1292.0630000000001019 1291.9230000000000018 1291.7360000000001037 1291.4090000000001055 1290.4269999999999072 1286.2190000000000509 1286.0319999999999254 1289.5850000000000364 1292.0630000000001019 1292.2970000000000255 1289.4449999999999363 1299.2639999999998963 1299.2170000000000982 1300.5260000000000673 1301.1340000000000146 1301.18100000000004 1301.7419999999999618 1300.6199999999998909 1300.5730000000000928 1301.2750000000000909 1300.5730000000000928 1301.2280000000000655 1300.5260000000000673 1305.7159999999998945 1307.8209999999999127 1313.1510000000000673 1318.3409999999998945 1321.5199999999999818 1324.3720000000000709 1326.2429999999999382 1325.821999999999889 1327.2239999999999327 1328.2529999999999291 1324.4659999999998945 1323.1099999999999 1325.6349999999999909 1329.0950000000000273 1332.4610000000000127 1335.6410000000000764 1339.1469999999999345 1345.1790000000000873 1350.8830000000000382 1356.2129999999999654 1361.4500000000000455 1364.9100000000000819 1369.5389999999999873 1374.6820000000000164 1376.45900000000006 1378.1420000000000528 1378.0489999999999782 1378.2819999999999254 1374.4949999999998909 1372.2980000000000018 1371.5960000000000036 1374.0740000000000691 1380.4329999999999927 1389.2699999999999818 1398.2940000000000964 1407.2709999999999582 1416.8569999999999709 1424.8989999999998872 1435.6990000000000691 1448.6040000000000418 1465.3430000000000746 1480.6330000000000382 1493.3969999999999345 1512.6140000000000327 1521.5909999999998945 1527.6230000000000473 1535.0570000000000164 1541.41599999999994 1546.1849999999999454 1549.8320000000001073 1554.2739999999998872 1556.1910000000000309 1557.2660000000000764 1559.5570000000000164 1559.3699999999998909 1558.6690000000000964 1558.8559999999999945 1562.59699999999998 1565.02800000000002 1567.9269999999999072 1569.5170000000000528 1571.2000000000000455 1572.7899999999999636 1574.3330000000000837 1573.3510000000001128 1572.4619999999999891 1566.43100000000004 1565.2619999999999436 1561.9420000000000073 1564.4200000000000728 1569.3299999999999272 1571.3399999999999181 1571.8079999999999927 1571.5270000000000437 1569.1430000000000291 1570.3119999999998981 1575.6880000000001019 1577.3720000000000709 1579.1020000000000891
1315.3019999999999072 1314.3199999999999363 1313.4780000000000655 1312.40300000000002 1311.5609999999999218 1310.5789999999999509 1309.6910000000000309 1308.70900000000006 1307.4459999999999127 1307.4459999999999127 1307.8669999999999618 1307.6340000000000146 1305.0619999999998981 1304.9220000000000255 1304.7809999999999491 1304.6880000000001019 1303.3320000000001073 1302.3499999999999091 1302.2100000000000364 1302.5370000000000346 1302.303000000000111 1301.7889999999999873 1300.7139999999999418 1298.6089999999999236 1298.0950000000000273 1298.2819999999999254 1297.9549999999999272 1297.8150000000000546 1297.48700000000008 1296.6459999999999582 1296.4120000000000346 1295.7110000000000127 1295.1030000000000655 1293.1389999999998963 1292.3910000000000764 1292.25 1292.0630000000001019 1291.8299999999999272 1291.5019999999999527 1286.6869999999998981 1286.4529999999999745 1289.7260000000001128 1293.6059999999999945 1296.45900000000006 1295.7570000000000618 1300.7139999999999418 1301.18100000000004 1301.04099999999994 1300.7599999999999909 1300.9010000000000673 1301.18100000000004 1300.6199999999998909 1300.8540000000000418 1301.0879999999999654 1300.5260000000000673 1301.2750000000000909 1300.4800000000000182 1308.6150000000000091 1311.8420000000000982 1313.1980000000000928 1314.5999999999999091 1319.9770000000000891 1325.68100000000004 1330.7309999999999945 1331.7129999999999654 1330.3569999999999709 1332.1340000000000146 1334.0039999999999054 1328.4400000000000546 1329.0480000000000018 1330.9179999999998927 1333.5830000000000837 1337.4639999999999418 1340.5499999999999545 1346.2539999999999054 1349.5270000000000437 1355.8389999999999418 1362.0109999999999673 1367.0139999999998963 1372.2039999999999509 1375.5239999999998872 1380.5740000000000691 1385.6700000000000728 1388.1010000000001128 1388.6159999999999854 1387.6340000000000146 1385.9970000000000709 1383.5660000000000309 1381.2280000000000655 1379.4980000000000473 1381.1349999999999909 1386.13799999999992 1396.0499999999999545 1405.7750000000000909 1421.8599999999999 1426.5820000000001073 1433.9230000000000018 1444.3489999999999327 1464.8759999999999764 1475.1150000000000091 1488.1600000000000819 1503.1690000000000964 1518.2249999999999091 1527.2490000000000236 1535.2439999999999145 1541.696999999999889 1547.7750000000000909 1553.1050000000000182 1560.4929999999999382 1560.9600000000000364 1562.8769999999999527 1565.1220000000000709 1563.2509999999999764 1560.6330000000000382 1564.2799999999999727 1568.4410000000000309 1571.1059999999999945 1574.0519999999999072 1576.1559999999999491 1578.2129999999999654 1579.6630000000000109 1579.4290000000000873 1578.7280000000000655 1578.4939999999999145 1574.0989999999999327 1571.2000000000000455 1567.45900000000006 1571.9480000000000928 1573.1639999999999873 1575.5950000000000273 1576.6700000000000728 1576.6700000000000728 1575.2210000000000036 1577.3250000000000455 1580.2239999999999327 1582.0470000000000255 1583.7770000000000437
1315.3949999999999818 1314.553000000000111 1313.8520000000000891 1312.9169999999999163 1311.8420000000000982 1310.6730000000000018 1309.6910000000000309 1308.2409999999999854 1308.3820000000000618 1308.2409999999999854 1307.5399999999999636 1306.6050000000000182 1305.1549999999999727 1305.0619999999998981 1305.2019999999999982 1304.1269999999999527 1302.8640000000000327 1302.2560000000000855 1302.1630000000000109 1302.303000000000111 1301.6949999999999363 1301.7419999999999618 1300.3859999999999673 1299.4039999999999964 1298.4220000000000255 1298.2819999999999254 1298.0950000000000273 1297.0199999999999818 1296.4120000000000346 1296.3179999999999836 1296.3179999999999836 1296.0380000000000109 1294.1679999999998927 1293.1859999999999218 1292.3440000000000509 1292.4380000000001019 1292.25 1291.9700000000000273 1287.0609999999999218 1286.9200000000000728 1289.2110000000000127 1293.51299999999992 1295.1959999999999127 1296.9259999999999309 1298.8900000000001 1301.04099999999994 1301.04099999999994 1300.4800000000000182 1300.6199999999998909 1300.8070000000000164 1300.6199999999998909 1301.3679999999999382 1300.5730000000000928 1300.7139999999999418 1301.18100000000004 1302.7709999999999582 1309.1759999999999309 1314.6469999999999345 1319.0419999999999163 1319.2290000000000418 1321.2860000000000582 1324.2319999999999709 1328.3930000000000291 1333.5370000000000346 1336.2950000000000728 1334.0039999999999054 1335.8279999999999745 1336.0609999999999218 1332.2739999999998872 1334.47199999999998 1336.2019999999999982 1338.6800000000000637 1342.1400000000001 1347.5630000000001019 1350.0419999999999163 1356.4010000000000673 1359.7200000000000273 1366.5930000000000746 1373.2329999999999472 1378.2360000000001037 1383.98700000000008 1390.2049999999999272 1395.9100000000000819 1398.6220000000000709 1400.3050000000000637 1398.2010000000000218 1396.9380000000001019 1402.6890000000000782 1410.3569999999999709 1398.2940000000000964 1385.2490000000000236 1389.6440000000000055 1396.0029999999999291 1408.9549999999999272 1432.9880000000000564 1447.9960000000000946 1453 1451.59699999999998 1459.125 1473.1050000000000182 1485.91599999999994 1498.0260000000000673 1517.3830000000000382 1526.0329999999999018 1533.88799999999992 1540.6210000000000946 1546.6990000000000691 1551.7960000000000491 1560.9130000000000109 1561.6620000000000346 1565.91599999999994 1568.5820000000001073 1569.5170000000000528 1565.4020000000000437 1568.9090000000001055 1573.58400000000006 1577.3720000000000709 1580.5039999999999054 1582.6549999999999727 1583.26299999999992 1582.6079999999999472 1581.6730000000000018 1581.2519999999999527 1581.4400000000000546 1580.7380000000000564 1577.0909999999998945 1572.5090000000000146 1576.9039999999999964 1578.2129999999999654 1579.4290000000000873 1581.6730000000000018 1581.5799999999999272 1580.8779999999999291 1583.3099999999999454 1583.7309999999999945 1585.7880000000000109 1588.1720000000000255
1315.9090000000001055 1315.0679999999999836 1314.3659999999999854 1313.29099999999994 1312.3559999999999945 1311.1400000000001 1310.0650000000000546 1309.2229999999999563 1308.6620000000000346 1307.8669999999999618 1307.4000000000000909 1306.8389999999999418 1306.0909999999998945 1305.1089999999999236 1304.7349999999999 1303.5660000000000309 1302.5370000000000346 1302.2100000000000364 1302.2560000000000855 1301.9290000000000873 1302.3499999999999091 1301.5080000000000382 1300.2460000000000946 1298.8900000000001 1298.6559999999999491 1298.9369999999998981 1297.6739999999999782 1296.5989999999999327 1296.5989999999999327 1296.45900000000006 1296.3179999999999836 1295.1489999999998872 1293.9800000000000182 1293.1389999999998963 1292.8119999999998981 1292.6710000000000491 1292.25 1287.2010000000000218 1287.1069999999999709 1289.1179999999999382 1292.625 1295.0090000000000146 1295.3360000000000127 1298.6559999999999491 1300.8540000000000418 1301.04099999999994 1299.8250000000000455 1300.3859999999999673 1300.6199999999998909 1300.6199999999998909 1301.4149999999999636 1300.6199999999998909 1301.3679999999999382 1300.6199999999998909 1308.3820000000000618 1307.16599999999994 1311.7010000000000218 1316.7039999999999509 1321.7070000000001073 1326.7100000000000364 1328.2999999999999545 1329.4220000000000255 1331.1520000000000437 1334.8460000000000036 1339.1010000000001128 1338.9600000000000364 1338.6330000000000382 1338.9139999999999873 1336.1549999999999727 1338.4929999999999382 1341.5319999999999254 1344.7110000000000127 1346.3479999999999563 1351.3510000000001128 1356.2599999999999909 1360.6089999999999236 1365.9390000000000782 1373.51299999999992 1380.9480000000000928 1384.5480000000000018 1390.4390000000000782 1398.6220000000000709 1406.1959999999999127 1408.6739999999999782 1411.4329999999999927 1410.9190000000000964 1411.6199999999998909 1416.7159999999998945 1421.5319999999999254 1412.8820000000000618 1400.1179999999999382 1396.3309999999999036 1396.5640000000000782 1410.6849999999999454 1420.6440000000000055 1451.0360000000000582 1464.2680000000000291 1471.4220000000000255 1470.8140000000000782 1473.2449999999998909 1486.5709999999999127 1502.6549999999999727 1510.7439999999999145 1520.8900000000001 1531.5499999999999545 1538.0029999999999291 1545.25 1552.2170000000000982 1560.30600000000004 1562.9710000000000036 1568.72199999999998 1572.6959999999999127 1572.5090000000000146 1570.125 1573.8179999999999836 1578.0730000000000928 1582.7019999999999982 1585.5070000000000618 1585.6010000000001128 1585.2739999999998872 1584.80600000000004 1583.7309999999999945 1584.9929999999999382 1585.4610000000000127 1586.20900000000006 1581.8140000000000782 1579.0080000000000382 1581.7200000000000273 1582.9359999999999218 1583.5440000000000964 1586.0219999999999345 1587.09699999999998 1586.6759999999999309 1588.2660000000000764 1589.5750000000000455 1590.696999999999889 1592.9880000000000564
1316.1900000000000546 1315.4420000000000073 1314.4600000000000364 1313.8989999999998872 1312.6829999999999927 1311.88799999999992 1310.6259999999999764 1309.5039999999999054 1308.8019999999999072 1308.0080000000000382 1307.6340000000000146 1305.76299999999992 1305.3420000000000982 1302.58400000000006 1303.7529999999999291 1302.9110000000000582 1302.303000000000111 1302.2560000000000855 1302.303000000000111 1302.1630000000000109 1301.0879999999999654 1299.9190000000000964 1299.5450000000000728 1299.0769999999999982 1298.8900000000001 1298.4220000000000255 1297.1130000000000564 1297.34699999999998 1296.8789999999999054 1296.3650000000000091 1295.8979999999999109 1293.8869999999999436 1293.65300000000002 1293.1859999999999218 1293.0920000000000982 1292.6710000000000491 1287.3409999999998945 1287.2480000000000473 1289.3050000000000637 1292.6710000000000491 1294.4480000000000928 1295.0090000000000146 1298.9839999999999236 1301.3209999999999127 1300.8070000000000164 1298.75 1300.4800000000000182 1300.6669999999999163 1301.18100000000004 1301.4149999999999636 1300.6199999999998909 1301.4149999999999636 1300.6199999999998909 1312.4960000000000946 1312.2159999999998945 1309.7380000000000564 1312.5899999999999181 1319.1820000000000164 1324.9800000000000182 1331.3859999999999673 1333.303000000000111 1334.8930000000000291 1334.9860000000001037 1337.4169999999999163 1341.7190000000000509 1343.9629999999999654 1343.0750000000000455 1344.3369999999999891 1343.2149999999999181 1344.3369999999999891 1347.8910000000000764 1350.0419999999999163 1352.84699999999998 1355.6990000000000691 1361.3099999999999454 1366.3599999999999 1373.7470000000000709 1380.7609999999999673 1387.0730000000000928 1393.0109999999999673 1396.3309999999999036 1403.0630000000001019 1411.1990000000000691 1418.5869999999999891 1422.3740000000000236 1422.3269999999999982 1424.29099999999994 1430.1349999999999909 1431.3510000000001128 1423.2619999999999436 1408.2070000000001073 1408.6739999999999782 1401.5209999999999582 1404.0450000000000728 1419.3350000000000364 1446.6869999999998981 1458.1430000000000291 1472.40300000000002 1477.6869999999998981 1481.3810000000000855 1485.5889999999999418 1493.2100000000000364 1499.6159999999999854 1513.4559999999999036 1526.5009999999999764 1534.8699999999998909 1542.3510000000001128 1551.7019999999999982 1558.2019999999999982 1562.7840000000001055 1568.3949999999999818 1574.1459999999999582 1577.4649999999999181 1574.4729999999999563 1578.2129999999999654 1583.0289999999999964 1587.1440000000000055 1587.3779999999999291 1587.3309999999999036 1587.4239999999999782 1587.7519999999999527 1588.2660000000000764 1589.6690000000000964 1590.3230000000000928 1590.696999999999889 1587.7980000000000018 1587.8920000000000528 1588.2660000000000764 1589.3409999999998945 1589.2950000000000728 1590.5099999999999909 1592.33400000000006 1593.1749999999999545 1594.7180000000000746 1595.5599999999999454 1597.4300000000000637 1600.2360000000001037
1316.5640000000000782 1315.6759999999999309 1314.83400000000006 1314.1790000000000873 1312.9639999999999418 1312.3089999999999691 1312.3089999999999691 1310.3920000000000528 1309.2229999999999563 1308.7560000000000855 1304.7809999999999491 1303.9400000000000546 1302.8640000000000327 1302.58400000000006 1302.7709999999999582 1302.6769999999999072 1302.3499999999999091 1302.7239999999999327 1302.5370000000000346 1302.06899999999996 1300.7599999999999909 1300.0119999999999436 1299.5450000000000728 1299.63799999999992 1299.0769999999999982 1298.5160000000000764 1297.8150000000000546 1297.2539999999999054 1297.1130000000000564 1296.45900000000006 1294.91599999999994 1293.9339999999999691 1293.5599999999999454 1293.51299999999992 1293.0450000000000728 1287.4809999999999945 1287.4809999999999945 1289.4919999999999618 1294.0740000000000691 1294.9619999999999891 1294.9619999999999891 1295.2899999999999636 1296.0380000000000109 1296.5989999999999327 1297.3940000000000055 1300.7599999999999909 1300.7139999999999418 1301.4619999999999891 1300.7599999999999909 1300.6199999999998909 1301.4149999999999636 1300.6199999999998909 1312.9639999999999418 1317.7799999999999727 1319.3689999999999145 1316.3299999999999272 1316.0499999999999545 1319.3230000000000928 1326.1020000000000891 1332.6949999999999363 1337.8849999999999909 1338.5399999999999636 1338.7729999999999109 1340.5499999999999545 1343.8230000000000928 1347.7970000000000255 1347.6569999999999254 1348.7789999999999964 1351.4909999999999854 1351.95900000000006 1352.84699999999998 1357.6159999999999854 1359.9069999999999254 1363.0399999999999636 1374.4020000000000437 1378.8440000000000509 1385.1559999999999491 1390.1590000000001055 1393.4780000000000655 1399.2760000000000673 1408.7680000000000291 1412.18100000000004 1420.4100000000000819 1429.01299999999992 1431.3979999999999109 1432.84699999999998 1441.3569999999999709 1441.4039999999999964 1441.5440000000000964 1430.2760000000000673 1417.7449999999998909 1419.7560000000000855 1417.1369999999999436 1418.071999999999889 1421.9529999999999745 1439.6269999999999527 1444.1620000000000346 1458.0489999999999782 1464.0340000000001055 1468.1020000000000891 1476.23700000000008 1483.9519999999999982 1492.2280000000000655 1507.7509999999999764 1522.9000000000000909 1530.9890000000000327 1539.6389999999998963 1548.9900000000000091 1555.6300000000001091 1562.73700000000008 1566.5239999999998872 1572.7429999999999382 1578.0730000000000928 1578.7280000000000655 1582.9829999999999472 1587.9390000000000782 1590.1829999999999927 1589.4819999999999709 1590.4639999999999418 1591.7260000000001128 1593.0350000000000819 1593.9700000000000273 1594.7650000000001 1595.4670000000000982 1595.4670000000000982 1593.3630000000000564 1593.6430000000000291 1595.0930000000000746 1595.7940000000000964 1596.2149999999999181 1596.9629999999999654 1598.31899999999996 1599.0670000000000073 1601.8720000000000709 1602.7139999999999418 1605.0050000000001091 1607.1089999999999236
1316.7509999999999764 1315.72199999999998 1315.1610000000000582 1314.2729999999999109 1313.9919999999999618 1312.2159999999998945 1311.2339999999999236 1310.4860000000001037 1309.6440000000000055 1308.8019999999999072 1303.9400000000000546 1302.9110000000000582 1302.8640000000000327 1302.7239999999999327 1302.6300000000001091 1302.7709999999999582 1302.303000000000111 1302.58400000000006 1302.3969999999999345 1301.2280000000000655 1300.4800000000000182 1300.1520000000000437 1299.8720000000000709 1299.63799999999992 1299.77800000000002 1298.3289999999999509 1297.48700000000008 1297.5809999999999036 1296.8330000000000837 1296.4120000000000346 1294.2609999999999673 1293.9800000000000182 1293.8869999999999436 1293.5599999999999454 1287.6679999999998927 1287.5750000000000455 1289.5850000000000364 1294.2139999999999418 1294.8689999999999145 1294.9619999999999891 1295.0090000000000146 1295.2429999999999382 1295.5229999999999109 1297.48700000000008 1300.6669999999999163 1300.6669999999999163 1301.4619999999999891 1300.6669999999999163 1301.0879999999999654 1301.4149999999999636 1301.3679999999999382 1313.2439999999999145 1317.4990000000000236 1322.8759999999999764 1325.9619999999999891 1323.6240000000000236 1320.678000000000111 1322.4549999999999272 1327.3179999999999836 1332.5080000000000382 1338.071999999999889 1341.7190000000000509 1342.6069999999999709 1344.29099999999994 1346.9090000000001055 1348.4049999999999727 1352.7070000000001073 1354.8579999999999472 1356.7750000000000909 1357.9429999999999836 1359.7670000000000528 1362.9929999999999382 1366.3130000000001019 1372.1569999999999254 1382.9110000000000582 1388.3350000000000364 1393.0109999999999673 1399.7439999999999145 1400.7719999999999345 1406.8969999999999345 1422.0930000000000746 1424.8520000000000891 1431.6320000000000618 1441.2170000000000982 1441.63799999999992 1451.59699999999998 1453.2329999999999472 1456.5060000000000855 1456.5999999999999091 1445.8920000000000528 1428.2650000000001 1434.2970000000000255 1431.3040000000000873 1433.8759999999999764 1426.3479999999999563 1428.7329999999999472 1435.7460000000000946 1442.1990000000000691 1450.19399999999996 1460.0599999999999454 1469.3640000000000327 1480.7260000000001128 1491.4329999999999927 1507.6579999999999018 1515.9800000000000182 1528.6050000000000182 1536.5070000000000618 1543.8009999999999309 1551.9829999999999472 1558.6220000000000709 1564.2329999999999472 1570.9190000000000964 1577.3720000000000709 1582.6549999999999727 1587.09699999999998 1591.7729999999999109 1592.9880000000000564 1593.4090000000001055 1594.9519999999999982 1597.0099999999999909 1597.8510000000001128 1599.2070000000001073 1601.7319999999999709 1602.2929999999998927 1601.5920000000000982 1600.4690000000000509 1601.8720000000000709 1602.15300000000002 1602.3399999999999181 1603.321999999999889 1604.7709999999999582 1605.98700000000008 1606.5009999999999764 1608.4179999999998927 1609.6800000000000637 1612.5329999999999018 1615.8520000000000891
1317.3589999999999236 1316.3769999999999527 1315.3019999999999072 1314.3199999999999363 1313.1510000000000673 1312.2619999999999436 1311.6549999999999727 1310.9059999999999491 1309.4100000000000819 1308.70900000000006 1308.1949999999999363 1305.6230000000000473 1302.6769999999999072 1302.6300000000001091 1302.8179999999999836 1302.58400000000006 1302.3969999999999345 1302.3969999999999345 1301.7419999999999618 1301.2280000000000655 1300.9010000000000673 1300.3389999999999418 1300.3389999999999418 1299.9649999999999181 1299.1240000000000236 1297.6739999999999782 1297.48700000000008 1297.2070000000001073 1295.9909999999999854 1294.7750000000000909 1294.3550000000000182 1294.2609999999999673 1293.8869999999999436 1287.9020000000000437 1287.8089999999999691 1289.5389999999999873 1293.7929999999998927 1294.9619999999999891 1295.05600000000004 1295.05600000000004 1295.1489999999998872 1295.3830000000000382 1298.1420000000000528 1300.6669999999999163 1301.5080000000000382 1301.4619999999999891 1300.7139999999999418 1301.5550000000000637 1301.04099999999994 1310.1579999999999018 1315.0679999999999836 1318.52800000000002 1322.5950000000000273 1327.178000000000111 1332.4610000000000127 1330.8250000000000455 1326.3830000000000382 1328.7210000000000036 1330.0299999999999727 1334.7989999999999782 1338.9139999999999873 1343.3089999999999691 1346.4410000000000309 1349.1059999999999945 1349.8540000000000418 1353.5480000000000018 1357.0550000000000637 1359.8599999999999 1361.3099999999999454 1363.6479999999999109 1366.6400000000001 1369.8199999999999363 1371.8299999999999272 1381.5550000000000637 1388.3350000000000364 1395.0209999999999582 1400.2110000000000127 1406.5229999999999109 1408.7210000000000036 1418.2129999999999654 1426.8160000000000309 1436.0270000000000437 1441.1230000000000473 1446.3599999999999 1452.3920000000000528 1458.9839999999999236 1463.7529999999999291 1466.9800000000000182 1469.08400000000006 1458.5170000000000528 1442.9939999999999145 1447.4819999999999709 1443.6479999999999109 1444.3959999999999582 1440.1880000000001019 1440.7019999999999982 1439.9079999999999018 1443.9749999999999091 1448.2300000000000182 1453.5609999999999218 1460.5270000000000437 1475.3489999999999327 1488.5340000000001055 1502.4680000000000746 1513.0350000000000819 1524.8640000000000327 1532.5789999999999509 1540.01299999999992 1547.0730000000000928 1553.5730000000000928 1561.0070000000000618 1565.7290000000000418 1574.6130000000000564 1582.5150000000001 1588.0319999999999254 1592.3810000000000855 1597.0099999999999909 1598.31899999999996 1600.7029999999999745 1602.2929999999998927 1603.1349999999999909 1605.8460000000000036 1607.9970000000000709 1608.4179999999998927 1608.3240000000000691 1610.0540000000000873 1609.4000000000000909 1609.0730000000000928 1609.8669999999999618 1610.1479999999999109 1611.1769999999999072 1612.7200000000000273 1613.2339999999999236 1615.5250000000000909 1617.2550000000001091 1619.9200000000000728 1622.1179999999999382
1317.9200000000000728 1316.1900000000000546 1315.3949999999999818 1314.7400000000000091 1312.4490000000000691 1311.1869999999998981 1310.8130000000001019 1308.428000000000111 1307.7270000000000891 1307.8669999999999618 1307.4929999999999382 1306.9320000000000164 1306.2309999999999945 1302.6769999999999072 1302.6769999999999072 1302.5370000000000346 1302.58400000000006 1302.2100000000000364 1301.7889999999999873 1301.5080000000000382 1301.1340000000000146 1300.6199999999998909 1300.4800000000000182 1299.9649999999999181 1297.7210000000000036 1297.6279999999999291 1296.9729999999999563 1296.1310000000000855 1295.5229999999999109 1294.6349999999999909 1294.5879999999999654 1294.2139999999999418 1288.0889999999999418 1287.9020000000000437 1289.2580000000000382 1292.25 1295.3360000000000127 1295.2899999999999636 1295.2899999999999636 1295.2429999999999382 1296.1310000000000855 1299.3109999999999218 1300.7139999999999418 1301.5080000000000382 1301.2750000000000909 1300.7139999999999418 1301.5550000000000637 1300.7139999999999418 1313.29099999999994 1317.0309999999999491 1320.4909999999999854 1324.4190000000000964 1327.9729999999999563 1332.3209999999999127 1337.0899999999999181 1337.1369999999999436 1331.7599999999999909 1331.6199999999998909 1333.6300000000001091 1338.4459999999999127 1342.6539999999999964 1345.45900000000006 1350.41599999999994 1352.1920000000000073 1355.27800000000002 1357.9900000000000091 1362.0109999999999673 1365.7989999999999782 1366.6869999999998981 1369.7260000000001128 1372.1110000000001037 1376.178000000000111 1380.6669999999999163 1387.7739999999998872 1395.4890000000000327 1403.3910000000000764 1409.8900000000001 1413.2560000000000855 1417.0440000000000964 1425.69399999999996 1432.4729999999999563 1441.9649999999999181 1446.5470000000000255 1450.8949999999999818 1457.3479999999999563 1462.9120000000000346 1467.4000000000000909 1472.40300000000002 1475.1620000000000346 1469.3170000000000073 1459.6859999999999218 1453.1400000000001 1454.4490000000000691 1453.8409999999998945 1456.2719999999999345 1454.3550000000000182 1460.5740000000000691 1462.44399999999996 1470.3930000000000291 1470.9539999999999509 1466.5589999999999691 1484.7940000000000964 1493.1159999999999854 1501.11200000000008 1510.7439999999999145 1520.8900000000001 1529.1189999999999145 1536.8810000000000855 1542.0709999999999127 1550.0190000000000055 1556.6590000000001055 1564.9809999999999945 1572.4619999999999891 1580.5039999999999054 1587.23700000000008 1592.9420000000000073 1597.8979999999999109 1602.7599999999999909 1605.8930000000000291 1607.5760000000000218 1609.8209999999999127 1611.2699999999999818 1613.3279999999999745 1616.0389999999999873 1616.83400000000006 1617.3019999999999072 1617.3019999999999072 1618.1430000000000291 1616.6469999999999345 1617.5360000000000582 1618.4239999999999782 1619.9200000000000728 1620.2940000000000964 1622.4449999999999363 1623.9410000000000309 1626.7470000000000709 1630.6269999999999527
1317.5460000000000491 1316.1900000000000546 1315.2550000000001091 1314.3659999999999854 1313.1040000000000418 1311.2809999999999491 1311.1869999999998981 1308.9429999999999836 1307.4929999999999382 1306.9790000000000418 1306.7919999999999163 1304.7809999999999491 1304.2670000000000528 1302.6769999999999072 1302.58400000000006 1302.8640000000000327 1302.5370000000000346 1302.3499999999999091 1301.9290000000000873 1301.8360000000000127 1300.8070000000000164 1300.7599999999999909 1300.6669999999999163 1300.1520000000000437 1297.2070000000001073 1297.3940000000000055 1296.7860000000000582 1295.9909999999999854 1295.0090000000000146 1294.8689999999999145 1294.4010000000000673 1288.3230000000000928 1288.1829999999999927 1289.3520000000000891 1290.5209999999999582 1295.3360000000000127 1295.8979999999999109 1295.7110000000000127 1295.6169999999999618 1296.9729999999999563 1300.6199999999998909 1300.6669999999999163 1301.4619999999999891 1300.7139999999999418 1300.8540000000000418 1301.5080000000000382 1300.7599999999999909 1312.8230000000000928 1318.7149999999999181 1323.2970000000000255 1325.5879999999999654 1329.7960000000000491 1333.5830000000000837 1337.5109999999999673 1341.2980000000000018 1341.8589999999999236 1337.0429999999998927 1337.8379999999999654 1339.0540000000000873 1341.5789999999999509 1346.2539999999999054 1350.1349999999999909 1352.6600000000000819 1356.9149999999999636 1360.375 1363.6949999999999363 1367.1079999999999472 1371.1759999999999309 1373.4670000000000982 1377.0199999999999818 1379.1710000000000491 1383.5190000000000055 1390.3920000000000528 1397.0789999999999509 1404.0450000000000728 1411.9000000000000909 1416.3889999999998963 1420.1759999999999309 1427.6110000000001037 1433.0340000000001055 1440.8900000000001 1449.4459999999999127 1453.1400000000001 1457.4880000000000564 1460.7139999999999418 1464.7349999999999 1470.0190000000000055 1476.3779999999999291 1481.2870000000000346 1480.6790000000000873 1473.2919999999999163 1462.44399999999996 1477.9210000000000491 1475.9100000000000819 1472.3569999999999709 1474.5070000000000618 1471.0009999999999764 1484.9339999999999691 1484.6069999999999709 1483.9059999999999491 1475.6759999999999309 1477.6869999999998981 1486.3369999999999891 1495.9690000000000509 1509.2940000000000964 1518.7390000000000327 1526.1269999999999527 1529.1189999999999145 1536.1790000000000873 1547.821999999999889 1554.6949999999999363 1562.2229999999999563 1567.3659999999999854 1576.5769999999999982 1585.69399999999996 1592.8479999999999563 1599.2070000000001073 1604.9580000000000837 1609.2599999999999909 1611.8779999999999291 1614.40300000000002 1617.8630000000000564 1620.38799999999992 1623.0060000000000855 1623.0999999999999091 1625.5779999999999745 1624.5489999999999782 1625.2970000000000255 1624.2690000000000055 1623.3800000000001091 1624.4090000000001055 1625.7180000000000746 1626.65300000000002 1628.7100000000000364 1631.0950000000000273 1634.7889999999999873 1638.4819999999999709
1317.8260000000000218 1315.8630000000000564 1314.5999999999999091 1314.1330000000000382 1312.9169999999999163 1311.2339999999999236 1310.2519999999999527 1308.8489999999999327 1308.8489999999999327 1307.2129999999999654 1305.5760000000000218 1304.5009999999999764 1303.1920000000000073 1302.7709999999999582 1302.58400000000006 1302.6300000000001091 1302.5370000000000346 1302.58400000000006 1301.6020000000000891 1300.8070000000000164 1300.8070000000000164 1300.8070000000000164 1300.4800000000000182 1299.5450000000000728 1297.48700000000008 1297.34699999999998 1295.8979999999999109 1295.4300000000000637 1295.3360000000000127 1293.8869999999999436 1288.5099999999999909 1288.3699999999998909 1289.2110000000000127 1290.9880000000000564 1295.1489999999998872 1296.5519999999999072 1296.4120000000000346 1296.3650000000000091 1298.7029999999999745 1300.7599999999999909 1301.5550000000000637 1301.5080000000000382 1300.8540000000000418 1301.5550000000000637 1301.5550000000000637 1300.3859999999999673 1310.2519999999999527 1314.1330000000000382 1323.7180000000000746 1326.6169999999999618 1329.9829999999999472 1334.0509999999999309 1337.9790000000000418 1342.5609999999999218 1345.7870000000000346 1346.9559999999999036 1344.196999999999889 1342.2799999999999727 1345.1790000000000873 1346.3949999999999818 1350.9300000000000637 1353.5950000000000273 1358.4110000000000582 1362.1980000000000928 1365.61200000000008 1370.053000000000111 1373.7000000000000455 1377.6749999999999545 1380.4329999999999927 1383.5660000000000309 1386.0909999999998945 1392.5429999999998927 1397.9670000000000982 1405.8689999999999145 1412.5550000000000637 1418.9139999999999873 1424.1980000000000928 1431.0239999999998872 1436.7280000000000655 1441.63799999999992 1447.5760000000000218 1452.5789999999999509 1457.9090000000001055 1461.7899999999999636 1465.6700000000000728 1468.2889999999999873 1471.6089999999999236 1478.4349999999999454 1484.3260000000000218 1488.9079999999999018 1481.0070000000000618 1471.4680000000000746 1480.0250000000000909 1498.5869999999999891 1498.68100000000004 1495.1269999999999527 1487.0380000000000109 1496.3889999999998963 1497.8859999999999673 1499.1949999999999363 1494.98700000000008 1481.8019999999999072 1483.2980000000000018 1489.6559999999999491 1501.2989999999999782 1513.0820000000001073 1516.821999999999889 1523.6479999999999109 1534.5899999999999181 1544.9690000000000509 1553.4790000000000418 1559.6980000000000928 1566.1500000000000909 1573.4909999999999854 1582.7950000000000728 1594.7180000000000746 1601.9659999999998945 1607.1559999999999491 1611.97199999999998 1615.80600000000004 1619.0789999999999509 1622.81899999999996 1625.8119999999998981 1627.2609999999999673 1629.4120000000000346 1631.0950000000000273 1631.375 1630.6739999999999782 1630.3940000000000055 1629.8789999999999054 1630.5809999999999036 1632.4510000000000218 1634.1340000000000146 1636.3779999999999291 1638.6700000000000728 1643.7190000000000509 1649.7509999999999764
1315.6289999999999054 1314.83400000000006 1314.6469999999999345 1313.571999999999889 1312.4490000000000691 1312.3089999999999691 1311.8420000000000982 1308.56899999999996 1307.4929999999999382 1307.0260000000000673 1306.0440000000000964 1304.7809999999999491 1303.61200000000008 1303.0050000000001091 1302.6300000000001091 1302.5370000000000346 1302.6300000000001091 1301.9290000000000873 1301.04099999999994 1300.6669999999999163 1300.8540000000000418 1300.9010000000000673 1300.9010000000000673 1300.9010000000000673 1296.5519999999999072 1296.2249999999999091 1295.94399999999996 1295.8979999999999109 1294.6820000000000164 1288.79099999999994 1288.5570000000000164 1289.1649999999999636 1291.6430000000000291 1294.9619999999999891 1297.1600000000000819 1297.0199999999999818 1297.0199999999999818 1301.0879999999999654 1300.8070000000000164 1301.5080000000000382 1300.8070000000000164 1300.8070000000000164 1301.6020000000000891 1300.8070000000000164 1301.3209999999999127 1309.4100000000000819 1313.1510000000000673 1317.6859999999999218 1324.3720000000000709 1331.1520000000000437 1334.7989999999999782 1338.16599999999994 1341.6720000000000255 1345.9739999999999327 1349.4339999999999691 1352.1920000000000073 1350.55600000000004 1349.5740000000000691 1351.0229999999999109 1352.0050000000001091 1352.7529999999999291 1358.2709999999999582 1363.3669999999999618 1368.0899999999999181 1371.4559999999999036 1374.4480000000000928 1379.1240000000000236 1382.58400000000006 1386.6990000000000691 1391.7019999999999982 1393.6649999999999636 1399.2290000000000418 1406.7100000000000364 1413.3969999999999345 1420.0360000000000582 1425.9739999999999327 1432.4729999999999563 1438.5979999999999563 1444.2560000000000855 1447.6690000000000964 1452.3920000000000528 1457.2539999999999054 1462.9580000000000837 1466.3250000000000455 1471.1410000000000764 1473.3389999999999418 1476.3309999999999036 1481.2870000000000346 1488.0670000000000073 1496.8569999999999709 1506.1620000000000346 1496.7170000000000982 1490.2180000000000746 1511.0709999999999127 1515.3260000000000218 1509.3409999999998945 1506.9559999999999036 1513.2690000000000055 1513.0820000000001073 1512.1929999999999836 1507.5640000000000782 1495.9220000000000255 1493.4900000000000091 1490.0769999999999982 1495.6410000000000764 1503.40300000000002 1511.0709999999999127 1525.5660000000000309 1534.2619999999999436 1541.8840000000000146 1549.1310000000000855 1556.0979999999999563 1565.7290000000000418 1570.4049999999999727 1581.9069999999999254 1593.7829999999999018 1602.4800000000000182 1607.0619999999998981 1610.8959999999999582 1615.1510000000000673 1619.8269999999999982 1624.5019999999999527 1628.5699999999999363 1630.9079999999999018 1633.8070000000000164 1635.303000000000111 1637.0799999999999272 1636.8460000000000036 1636.5650000000000546 1635.8170000000000073 1636.2380000000000564 1638.0619999999998981 1640.9139999999999873 1644.2799999999999727 1649.4239999999999782 1653.2110000000000127 1659.1489999999998872
1313.43100000000004 1313.9919999999999618 1314.2260000000001128 1313.1980000000000928 1312.0289999999999964 1310.9529999999999745 1310.0180000000000291 1308.5219999999999345 1307.5869999999999891 1307.3530000000000655 1306.3710000000000946 1303.2850000000000819 1303.9400000000000546 1303.7059999999999036 1302.2560000000000855 1302.4429999999999836 1302.5370000000000346 1301.9290000000000873 1300.8540000000000418 1300.5260000000000673 1300.6669999999999163 1300.7599999999999909 1300.946999999999889 1296.8330000000000837 1296.5050000000001091 1296.45900000000006 1296.4120000000000346 1296.1310000000000855 1289.5389999999999873 1288.8369999999999891 1289.5850000000000364 1292.9519999999999982 1296.5989999999999327 1297.7680000000000291 1297.6739999999999782 1299.4980000000000473 1300.8540000000000418 1301.5550000000000637 1301.5550000000000637 1300.9010000000000673 1301.6949999999999363 1301.6020000000000891 1300.9010000000000673 1303.3789999999999054 1308.8489999999999327 1311.4210000000000491 1317.3589999999999236 1323.25 1326.1020000000000891 1332.6949999999999363 1336.5289999999999964 1340.3160000000000309 1343.4490000000000691 1347.5630000000001019 1351.0699999999999363 1355.0450000000000728 1354.8109999999999218 1354.3430000000000746 1354.9980000000000473 1357.2889999999999873 1359.7200000000000273 1364.1150000000000091 1367.7619999999999436 1372.5309999999999491 1377.4880000000000564 1381.9300000000000637 1385.8099999999999454 1389.3170000000000073 1393.8530000000000655 1398.7619999999999436 1400.9130000000000109 1408.7210000000000036 1415.4069999999999254 1423.0289999999999964 1431.1169999999999618 1434.7180000000000746 1437.5699999999999363 1443.8350000000000364 1451.0820000000001073 1454.7760000000000673 1457.3479999999999563 1463.1459999999999582 1468.2419999999999618 1473.0109999999999673 1477.5470000000000255 1483.7650000000001 1488.2539999999999054 1496.8569999999999709 1502.4210000000000491 1506.2080000000000837 1513.4090000000001055 1510.4629999999999654 1503.26299999999992 1517.4770000000000891 1521.1700000000000728 1521.77800000000002 1522.6199999999998909 1524.06899999999996 1520.0009999999999764 1516.2139999999999418 1512.6140000000000327 1505.928000000000111 1510.3230000000000928 1502.4680000000000746 1496.8569999999999709 1500.5039999999999054 1504.4780000000000655 1520.5630000000001019 1527.8569999999999709 1536.8810000000000855 1543.5199999999999818 1550.2999999999999545 1560.5389999999999873 1567.1790000000000873 1576.1089999999999236 1589.3409999999998945 1595.7470000000000709 1601.4049999999999727 1606.5480000000000018 1612.9069999999999254 1618.4239999999999782 1623.4269999999999072 1628.1489999999998872 1633.0589999999999691 1637.4069999999999254 1640.4459999999999127 1642.73700000000008 1643.0650000000000546 1642.7840000000001055 1642.3630000000000564 1642.73700000000008 1644.1869999999998981 1647.553000000000111 1652.1820000000000164 1658.7280000000000655 1663.3569999999999709 1666.8640000000000327
1310.2049999999999272 1311.6549999999999727 1311.2809999999999491 1311.4210000000000491 1310.9059999999999491 1310.1579999999999018 1309.5039999999999054 1308.6150000000000091 1307.4459999999999127 1305.3420000000000982 1306.5109999999999673 1304.6410000000000764 1304.5009999999999764 1302.9110000000000582 1301.6949999999999363 1301.9760000000001128 1301.4619999999999891 1301.4149999999999636 1300.7599999999999909 1300.5260000000000673 1300.6199999999998909 1299.77800000000002 1297.2070000000001073 1296.9729999999999563 1296.9729999999999563 1296.6920000000000073 1296.3179999999999836 1293.5599999999999454 1289.1649999999999636 1289.4449999999999363 1293.0450000000000728 1297.2999999999999545 1298.4690000000000509 1298.2819999999999254 1301.0879999999999654 1300.8070000000000164 1301.6489999999998872 1300.8540000000000418 1300.9010000000000673 1301.6489999999998872 1301.2750000000000909 1302.4900000000000091 1309.0360000000000582 1310.0650000000000546 1315.3019999999999072 1316.1900000000000546 1320.3510000000001128 1326.3360000000000127 1331.2449999999998909 1334.4249999999999545 1337.3710000000000946 1340.4100000000000819 1343.4020000000000437 1347.9380000000001019 1353.2210000000000036 1355.6990000000000691 1358.7850000000000819 1360.6089999999999236 1361.5899999999999181 1363.6949999999999363 1366.3130000000001019 1370.6150000000000091 1373.2329999999999472 1376.8800000000001091 1383.1449999999999818 1388.1479999999999109 1392.6369999999999436 1395.9100000000000819 1401.5670000000000073 1406.1489999999998872 1410.6849999999999454 1415.5470000000000255 1423.1690000000000964 1431.1639999999999873 1437.1959999999999127 1441.77800000000002 1444.2560000000000855 1450.428000000000111 1455.8979999999999109 1461.6489999999998872 1464.0809999999999036 1470.0190000000000055 1473.66599999999994 1480.071999999999889 1484.5599999999999454 1491.1990000000000691 1498.9139999999999873 1506.2080000000000837 1511.9130000000000109 1516.6820000000000164 1521.5440000000000964 1526.0329999999999018 1514.7180000000000746 1525.7989999999999782 1527.2490000000000236 1527.5289999999999964 1529.4459999999999127 1527.4829999999999472 1521.3569999999999709 1520.6089999999999236 1522.946999999999889 1521.0769999999999982 1521.63799999999992 1514.5779999999999745 1509.52800000000002 1503.9169999999999163 1502.4210000000000491 1510.79099999999994 1517.1030000000000655 1529.9610000000000127 1531.4570000000001073 1542.7719999999999345 1554.0399999999999636 1563.0640000000000782 1568.1610000000000582 1585.1330000000000382 1591.9130000000000109 1596.5889999999999418 1601.63799999999992 1607.9500000000000455 1613.7019999999999982 1619.4529999999999745 1625.2970000000000255 1631.4690000000000509 1636.8460000000000036 1642.2699999999999818 1646.4780000000000655 1649.6110000000001037 1648.8160000000000309 1647.8810000000000855 1649.3299999999999272 1651.3409999999998945 1653.7719999999999345 1657.9329999999999927 1664.5260000000000673 1670.7449999999998909 1674.0170000000000528
1312.7770000000000437 1308.6620000000000346 1310.8599999999999 1311 1311.5609999999999218 1310.9059999999999491 1308.6150000000000091 1308.0080000000000382 1306.6980000000000928 1306.4179999999998927 1304.875 1304.7809999999999491 1304.8279999999999745 1300.9939999999999145 1301.2280000000000655 1301.3209999999999127 1301.04099999999994 1299.9649999999999181 1300.5730000000000928 1300.4329999999999927 1297.8610000000001037 1297.5809999999999036 1297.3940000000000055 1297.5340000000001055 1297.8610000000001037 1296.7390000000000327 1296.4120000000000346 1289.4449999999999363 1289.3520000000000891 1293.4659999999998945 1297.5809999999999036 1299.0769999999999982 1300.3389999999999418 1300.9010000000000673 1301.6489999999998872 1301.5080000000000382 1300.9010000000000673 1301.7419999999999618 1301.6489999999998872 1300.9939999999999145 1309.4100000000000819 1309.3640000000000327 1311.6549999999999727 1314.7400000000000091 1319.55600000000004 1322.3150000000000546 1326.1489999999998872 1332.3679999999999382 1335.3599999999999 1337.6980000000000928 1339.5679999999999836 1343.1220000000000709 1346.1610000000000582 1349.6210000000000946 1354.9039999999999964 1359.4400000000000546 1362.66599999999994 1365.4710000000000036 1367.0609999999999218 1368.6980000000000928 1371.8299999999999272 1375.3840000000000146 1378.4690000000000509 1381.7889999999999873 1387.6340000000000146 1394.3669999999999618 1399.8369999999999891 1404.0450000000000728 1408.3940000000000055 1412.3679999999999382 1419.8489999999999327 1424.6179999999999382 1431.0709999999999127 1440.7019999999999982 1446.0329999999999018 1452.4849999999999 1455.8979999999999109 1462.3969999999999345 1465.7170000000000982 1471.9829999999999472 1474.3199999999999363 1478.4819999999999709 1485.7760000000000673 1486.9449999999999363 1496.7639999999998963 1504.29099999999994 1511.7719999999999345 1518.0380000000000109 1518.8330000000000837 1526.7809999999999491 1530.1010000000001128 1532.0180000000000291 1529.6330000000000382 1531.4570000000001073 1532.2519999999999527 1533.5609999999999218 1534.0750000000000455 1530.0070000000000618 1524.3499999999999091 1526.6410000000000764 1528.9320000000000164 1530.70900000000006 1531.0360000000000582 1527.8569999999999709 1523.04099999999994 1519.0660000000000309 1512.5209999999999582 1508.0319999999999254 1511.0709999999999127 1517.7570000000000618 1523.18100000000004 1531.73700000000008 1545.9980000000000473 1553.8530000000000655 1562.2690000000000055 1575.8289999999999509 1585.1800000000000637 1592.8009999999999309 1598.6929999999999836 1603.9760000000001128 1610.1949999999999363 1616.0389999999999873 1622.6790000000000873 1629.5050000000001091 1636.3320000000001073 1642.3630000000000564 1648.2080000000000837 1653.3979999999999109 1654.0060000000000855 1653.5380000000000109 1655.5950000000000273 1658.54099999999994 1660.9259999999999309 1663.5909999999998945 1670.6980000000000928 1676.1679999999998927 1680.2360000000001037
1314.1330000000000382 1313.5250000000000909 1310.2519999999999527 1312.8699999999998909 1308.3820000000000618 1308.428000000000111 1307.4929999999999382 1307.3530000000000655 1306.5579999999999927 1304.7349999999999 1304.875 1304.8279999999999745 1304.6880000000001019 1300.5260000000000673 1300.0589999999999691 1300.1059999999999945 1300.2460000000000946 1300.9010000000000673 1298.5630000000001019 1298.1420000000000528 1297.7680000000000291 1297.48700000000008 1297.8610000000001037 1298.0480000000000018 1298.4220000000000255 1298.7029999999999745 1297.6739999999999782 1289.3520000000000891 1300.4329999999999927 1303.1920000000000073 1306.3710000000000946 1300.9010000000000673 1301.0879999999999654 1301.6489999999998872 1300.9939999999999145 1301.3209999999999127 1301.7419999999999618 1300.9939999999999145 1305.76299999999992 1309.1759999999999309 1314.0389999999999873 1314.8810000000000855 1318.2470000000000709 1319.7899999999999636 1323.1569999999999254 1327.5989999999999327 1334.5180000000000291 1337.0899999999999181 1339.8489999999999327 1342.6069999999999709 1344.9919999999999618 1347.0019999999999527 1349.9480000000000928 1354.25 1357.0550000000000637 1362.5260000000000673 1367.2010000000000218 1370.8949999999999818 1372.3440000000000509 1375.0099999999999909 1377.7210000000000036 1380.3399999999999181 1384.1269999999999527 1389.3640000000000327 1394.5540000000000873 1400.4449999999999363 1405.6820000000000164 1410.8250000000000455 1415.6880000000001019 1419.9429999999999836 1430.2760000000000673 1437.1020000000000891 1447.3889999999998963 1448.9780000000000655 1458.0489999999999782 1468.56899999999996 1470.7200000000000273 1476.4239999999999782 1483.2039999999999509 1486.2899999999999636 1486.8510000000001128 1489.2819999999999254 1493.0229999999999109 1508.2660000000000764 1512.8949999999999818 1515.4659999999998945 1521.5909999999998945 1526.5009999999999764 1531.6910000000000309 1537.4420000000000073 1536.83400000000006 1538.2829999999999018 1536.9739999999999327 1537.8630000000000564 1538.2829999999999018 1538.6569999999999254 1538.7039999999999509 1532.3450000000000273 1528.2309999999999945 1530.70900000000006 1532.8599999999999 1534.40300000000002 1535.8989999999998872 1534.1690000000000964 1530.70900000000006 1528.5109999999999673 1527.3420000000000982 1522.946999999999889 1513.5960000000000036 1517.3830000000000382 1522.946999999999889 1530.0070000000000618 1538.8910000000000764 1551.6089999999999236 1561.4749999999999091 1568.5820000000001073 1578.1669999999999163 1586.6759999999999309 1594.9990000000000236 1602.0589999999999691 1608.8389999999999418 1614.9169999999999163 1621.2760000000000673 1628.1489999999998872 1636.0979999999999563 1643.8130000000001019 1649.9849999999999 1656.0160000000000764 1659.4760000000001128 1660.8789999999999054 1662.4690000000000509 1666.0219999999999345 1669.2480000000000473 1669.6220000000000709 1673.59699999999998 1682.2929999999998927 1687.8569999999999709
1315.3949999999999818 1313.8989999999998872 1314.0389999999999873 1308.8489999999999327 1306.8389999999999418 1306.6980000000000928 1306.6980000000000928 1305.8569999999999709 1304.7349999999999 1304.6880000000001019 1304.9680000000000746 1304.7809999999999491 1303.9400000000000546 1300.1059999999999945 1299.7319999999999709 1299.4980000000000473 1298.9369999999998981 1298.7029999999999745 1298.3289999999999509 1298.1420000000000528 1298.0950000000000273 1298.0480000000000018 1299.2170000000000982 1299.2170000000000982 1298.8900000000001 1299.3579999999999472 1302.3499999999999091 1303.5660000000000309 1305.3889999999998963 1308.9890000000000327 1310.3920000000000528 1305.8569999999999709 1300.9939999999999145 1300.9939999999999145 1301.7889999999999873 1301.4149999999999636 1301.3209999999999127 1309.1759999999999309 1311.4680000000000746 1316.9380000000001019 1322.3150000000000546 1322.5019999999999527 1325.2609999999999673 1327.5989999999999327 1330.4039999999999964 1333.20900000000006 1339.5679999999999836 1342.4200000000000728 1345.31899999999996 1347.6099999999999 1350.3689999999999145 1353.6890000000000782 1354.4829999999999472 1356.446999999999889 1360.6549999999999727 1365.61200000000008 1370.8949999999999818 1375.0099999999999909 1376.8800000000001091 1380.0589999999999691 1383.5190000000000055 1387.4000000000000909 1392.3099999999999454 1395.2550000000001091 1400.2110000000000127 1405.91599999999994 1412.9760000000001128 1417.0899999999999181 1421.8130000000001019 1431.0239999999998872 1443.5080000000000382 1458.5630000000001019 1465.1089999999999236 1468.9429999999999836 1470.4400000000000546 1478.8089999999999691 1480.071999999999889 1489.7029999999999745 1493.5370000000000346 1495.5480000000000018 1497.7449999999998909 1505.2260000000001128 1515.1389999999998963 1518.6459999999999582 1523.7419999999999618 1528.6510000000000673 1533.7950000000000728 1536.9269999999999072 1539.0309999999999491 1541.9770000000000891 1543.8009999999999309 1543.2860000000000582 1542.678000000000111 1542.3040000000000873 1543.5199999999999818 1543.3800000000001091 1541.6030000000000655 1536.4600000000000364 1531.3630000000000564 1534.6829999999999927 1538.5170000000000528 1540.4809999999999945 1541.55600000000004 1540.5740000000000691 1540.0599999999999454 1537.6759999999999309 1536.2260000000001128 1531.5039999999999054 1529.6330000000000382 1524.4900000000000091 1525.0979999999999563 1531.2229999999999563 1538.8440000000000509 1549.1769999999999072 1559.1369999999999436 1568.3949999999999818 1572.8360000000000127 1580.3170000000000073 1590.0889999999999418 1598.45900000000006 1607.2490000000000236 1613.8420000000000982 1620.52800000000002 1629.4580000000000837 1638.1079999999999472 1645.7300000000000182 1652.9770000000000891 1658.54099999999994 1663.77800000000002 1667.7519999999999527 1670.3240000000000691 1671.8669999999999618 1676.4020000000000437 1679.7690000000000055 1682.7139999999999418 1687.8109999999999218 1691.7380000000000564
1316.2829999999999018 1315.3019999999999072 1313.8989999999998872 1305.2019999999999982 1306.5579999999999927 1306.3710000000000946 1305.5289999999999964 1305.2490000000000236 1304.5940000000000509 1304.875 1305.0150000000001 1304.3140000000000782 1300.4329999999999927 1300.0589999999999691 1299.5909999999998945 1299.1710000000000491 1299.0299999999999727 1298.8900000000001 1298.5160000000000764 1297.5340000000001055 1298.0019999999999527 1298.5630000000001019 1299.0769999999999982 1299.1710000000000491 1301.7889999999999873 1304.6410000000000764 1306.4649999999999181 1309.1759999999999309 1310.5319999999999254 1310.5319999999999254 1310.4860000000001037 1301.8360000000000127 1301.9760000000001128 1301.7889999999999873 1301.0879999999999654 1309.2229999999999563 1311.7950000000000728 1313.1980000000000928 1316.7509999999999764 1323.0160000000000764 1330.3099999999999454 1331.8070000000000164 1333.3499999999999091 1336.2480000000000473 1336.90300000000002 1341.0640000000000782 1343.5889999999999418 1345.553000000000111 1348.6859999999999218 1353.5480000000000018 1355.27800000000002 1358.2239999999999327 1359.9069999999999254 1361.1700000000000728 1364.4429999999999836 1369.3520000000000891 1376.2249999999999091 1379.7789999999999964 1383.0519999999999072 1386.2309999999999945 1389.8779999999999291 1393.7119999999999891 1398.9960000000000946 1403.5779999999999745 1406.1030000000000655 1411.5730000000000928 1418.0260000000000673 1424.571999999999889 1439.2059999999999036 1450.1010000000001128 1461.6959999999999127 1472.6839999999999691 1478.5750000000000455 1483.0640000000000782 1486.4300000000000637 1490.1710000000000491 1496.8569999999999709 1501.11200000000008 1503.7770000000000437 1504.3849999999999909 1508.9200000000000728 1516.4949999999998909 1522.946999999999889 1528.4639999999999418 1533.7010000000000218 1537.5820000000001073 1541.55600000000004 1542.7719999999999345 1544.0809999999999036 1546.2789999999999964 1547.0730000000000928 1548.3830000000000382 1549.4580000000000837 1549.1310000000000855 1549.1310000000000855 1548.4290000000000873 1545.4369999999998981 1541.0419999999999163 1537.1610000000000582 1537.6289999999999054 1542.678000000000111 1545.3440000000000509 1546.3720000000000709 1547.9149999999999636 1548.8499999999999091 1546.4190000000000964 1544.7819999999999254 1541.3230000000000928 1539.7799999999999727 1539.5930000000000746 1534.1220000000000709 1536.0389999999999873 1543.5670000000000073 1552.5440000000000964 1560.2119999999999891 1567.5999999999999091 1571.2000000000000455 1578.4000000000000909 1586.3489999999999327 1594.2980000000000018 1602.15300000000002 1611.59699999999998 1620.38799999999992 1631.0950000000000273 1639.4179999999998927 1647.9269999999999072 1655.8289999999999509 1661.48700000000008 1667.2380000000000564 1672.8019999999999072 1675.6069999999999709 1679.1610000000000582 1682.5270000000000437 1687.0160000000000764 1689.7739999999998872 1693.1880000000001019 1696.1800000000000637
1316.9849999999999 1316.2829999999999018 1310.5319999999999254 1306.1839999999999691 1304.4539999999999509 1304.0799999999999272 1304.5480000000000018 1304.0799999999999272 1304.7809999999999491 1304.9680000000000746 1304.9220000000000255 1302.2560000000000855 1299.9190000000000964 1299.8720000000000709 1299.9649999999999181 1299.4980000000000473 1299.1240000000000236 1298.8900000000001 1298.3759999999999764 1298.1420000000000528 1299.0299999999999727 1299.1240000000000236 1300.5260000000000673 1304.8279999999999745 1307.30600000000004 1310.11200000000008 1310.5319999999999254 1310.5789999999999509 1310.5789999999999509 1310.4860000000001037 1310.3920000000000528 1310.2989999999999782 1301.2280000000000655 1309.2699999999999818 1310.8130000000001019 1315.9090000000001055 1319.41599999999994 1321.9880000000000564 1320.2580000000000382 1327.7860000000000582 1335.3130000000001019 1340.9239999999999782 1342.2799999999999727 1344.8520000000000891 1345.8800000000001091 1346.4880000000000564 1348.0779999999999745 1351.0229999999999109 1354.0630000000001019 1357.1489999999998872 1361.6839999999999691 1365.0039999999999054 1366.3599999999999 1367.2950000000000728 1369.5389999999999873 1374.1210000000000946 1380.5270000000000437 1385.2960000000000491 1388.4290000000000873 1392.9169999999999163 1396.0029999999999291 1400.2110000000000127 1405.6349999999999909 1410.77800000000002 1413.7239999999999327 1418.3530000000000655 1424.1510000000000673 1439.7210000000000036 1451.4100000000000819 1464.3140000000000782 1480.6790000000000873 1488.1140000000000327 1491.2929999999998927 1495.5009999999999764 1499.0550000000000637 1504.1510000000000673 1508.3119999999998981 1512.1459999999999582 1514.6710000000000491 1516.6820000000000164 1519.0199999999999818 1525.5660000000000309 1529.9610000000000127 1533.0930000000000746 1538.0029999999999291 1541.5099999999999909 1543.9880000000000564 1546.0450000000000728 1547.0270000000000437 1549.4580000000000837 1550.0190000000000055 1552.9179999999998927 1555.0219999999999345 1554.7880000000000109 1555.0219999999999345 1553.80600000000004 1550.48700000000008 1546.7929999999998927 1542.8650000000000091 1539.125 1543.9410000000000309 1547.68100000000004 1549.8320000000001073 1551.3279999999999745 1553.6189999999999145 1553.9929999999999382 1552.4500000000000455 1550.7200000000000273 1549.0370000000000346 1546.5119999999999436 1545.4369999999998981 1541.1349999999999909 1542.9120000000000346 1547.9149999999999636 1558.9500000000000455 1567.3659999999999854 1573.3510000000001128 1579.5219999999999345 1586.1620000000000346 1594.1110000000001037 1601.6849999999999454 1612.3920000000000528 1619.7329999999999472 1630.2999999999999545 1640.8669999999999618 1649.8440000000000509 1657.3720000000000709 1664.5260000000000673 1670.79099999999994 1677.1500000000000909 1681.4990000000000236 1684.0229999999999109 1686.0340000000001055 1689.3540000000000418 1693.1410000000000764 1695.5250000000000909 1699.2190000000000509
